16.798603 77.294601 -98.680511 
-84.313095 74.633766 -57.585110 
-40.298008 -118.123703 20.472389 
80.969116 -37.624748 -88.856514 
-86.608948 67.461533 -63.036964 
-119.013931 32.549992 26.139055 
-66.576897 -79.706581 71.407188 
-25.680414 118.103958 38.598755 
26.322546 114.598106 44.984833 
16.188301 -96.440933 -80.620178 
92.533081 -58.618607 62.643391 
-44.711845 104.682678 -54.564663 
95.971878 -81.099419 -13.887486 
43.293274 -118.466156 -3.621837 
-77.284676 -84.897743 51.678368 
64.611633 43.427670 -99.008865 
-18.163895 2.076476 -125.645607 
-18.029596 117.707359 41.029697 
-78.135750 -99.219315 -16.396002 
-123.603783 -18.912996 -20.039032 
84.492340 78.114899 49.032455 
22.710041 83.269424 -91.714729 
97.778488 -54.968601 -58.265106 
124.297134 -17.118504 -14.516551 
38.886795 -97.651047 69.557930 
77.479080 -91.493103 -39.439594 
-25.514103 -6.725971 124.094360 
-34.534729 99.894501 67.521751 
121.421478 31.608337 0.641256 
-97.970741 46.166557 64.712669 
-65.616722 98.134605 -44.148842 
44.556271 73.070969 91.082024 
5.946847 97.305984 78.399048 
-58.952343 83.322395 72.999702 
23.504414 110.249115 55.516083 
-75.712952 -81.095352 60.400963 
80.556931 32.359535 -90.833626 
-24.931953 112.485641 -51.752895 
-3.661887 -73.221756 -103.943100 
-40.972328 114.112503 33.937859 
-23.826128 -78.622543 -96.698357 
-23.915554 -116.297836 -46.145363 
9.805464 58.567768 -111.896461 
27.420605 90.058884 83.054482 
-125.109863 -3.263937 17.628685 
45.620651 64.260254 -98.479362 
-66.257668 106.941315 7.667312 
-114.528976 23.270184 -48.041649 
33.347961 51.262817 109.610245 
85.831757 -89.578018 19.546097 
21.313826 -12.351865 124.165298 
96.581879 70.091751 -39.459602 
-83.261772 10.204945 -94.739708 
-103.495789 71.536781 11.914232 
-51.057064 107.109482 43.098255 
65.276527 42.118103 98.384758 
-36.282864 74.414948 94.451065 
8.035763 117.136971 43.632927 
27.497425 59.440750 -108.327744 
-81.177895 -91.917992 -29.624193 
58.552231 105.718735 -34.324318 
-4.406909 16.743525 124.981888 
49.742668 -107.108643 45.289211 
-54.477573 58.221062 -97.783005 
-41.057312 -34.509876 115.102669 
-3.895581 -125.942863 16.175783 
-44.148308 -6.164601 -119.454674 
120.526489 11.181912 36.262249 
4.652663 87.904175 89.131447 
-43.365932 109.604828 44.213051 
59.693802 -30.840511 -107.226357 
-120.080315 0.588105 41.006577 
26.804016 0.880214 123.742706 
112.931091 54.423058 -13.896183 
-58.153091 -84.468620 -74.393051 
-98.350052 -49.411926 -64.055389 
34.016876 -21.198492 119.505615 
87.090508 89.598473 -3.001134 
-113.204544 -33.283043 45.308468 
-104.517960 66.352478 -24.448124 
-62.616631 106.928368 21.783085 
73.700592 60.891953 81.355103 
-116.838028 -33.717628 35.748955 
-19.687347 -12.117569 124.423080 
-73.135948 63.217815 -82.314705 
22.994503 37.844490 118.086891 
39.995285 19.277937 117.997307 
25.086777 -91.486107 83.460632 
113.312889 53.590076 -6.126741 
107.289474 28.409622 58.058338 
-29.607399 -38.311218 -118.185165 
-78.640228 -57.888859 -81.161316 
73.647675 -59.085709 83.699608 
-123.501099 11.308315 25.994274 
81.175591 87.466850 -38.401146 
107.584351 -45.565323 45.463543 
40.617802 -63.997478 100.821144 
-78.443466 87.041382 -45.591808 
15.358627 111.723427 -55.163906 
-98.662163 28.530060 -73.611931 
31.344185 94.418747 75.681694 
-70.549232 -102.002396 -27.051266 
58.082626 -91.624741 64.104500 
-56.935818 108.808868 27.425446 
-48.897476 72.019386 90.428383 
50.226025 -78.080246 -86.348877 
1.346606 95.839111 -82.139572 
-4.516458 118.656738 41.316963 
18.831537 119.301720 35.415333 
27.760834 -123.436539 0.392259 
31.516724 -72.433075 -99.569443 
106.250916 18.976866 64.194763 
100.458862 74.210243 -10.337120 
13.202307 -109.648849 61.192337 
-102.242737 46.888069 -57.373829 
-7.691116 -11.938084 -125.952362 
-69.324387 -86.235062 61.235867 
-57.446121 78.363556 -81.100243 
112.258591 -15.594240 54.288052 
125.000000 7.234743 8.488180 
78.837379 67.941078 69.626747 
123.784973 -5.029613 19.318153 
-8.306819 81.280769 94.755081 
78.040680 -88.761566 42.414387 
-90.035088 -51.705383 -73.112633 
61.685558 83.468689 69.933350 
-87.705780 -41.364178 -81.549782 
89.612122 -87.258163 -17.175644 
121.269615 32.397957 -7.738920 
-33.938087 -46.396614 -113.784042 
58.137085 -108.714043 26.791950 
-46.267437 2.220285 -118.834412 
115.480087 -49.861641 -12.283333 
57.021023 108.932472 22.753927 
-122.925751 -22.375378 20.328854 
28.694609 -35.072380 -118.919960 
12.923037 27.485210 -123.566887 
-18.058065 -101.198944 72.950058 
-11.573626 120.097107 34.173607 
30.134058 -117.459084 38.218025 
-69.363213 -106.186012 4.919950 
95.959366 78.713516 -17.941643 
94.426605 -62.972351 -54.389572 
-28.709425 -112.723412 49.870163 
117.867752 19.408112 39.756508 
123.179482 8.181690 -23.466724 
-26.981468 108.334122 -58.778313 
-103.630417 27.233681 -67.420471 
-42.383675 17.332932 -118.876328 
123.878723 -19.830650 11.213490 
107.779602 -13.367811 -65.160782 
70.828781 28.389584 99.345886 
83.382797 71.021324 61.313107 
-38.887432 99.020340 -67.860428 
-92.215988 -26.012585 82.114639 
-79.851852 -76.024956 -63.778862 
-48.319748 100.383789 58.530220 
104.190735 -70.312164 10.614925 
63.165947 -109.123596 -1.327869 
-21.845490 -49.792736 -115.955078 
-77.888474 -89.145401 43.562084 
66.877213 -105.442497 19.715509 
-106.443634 52.305435 42.931870 
-3.786446 29.290348 122.816116 
63.322598 -109.035049 -9.874958 
114.739929 -27.316463 42.994408 
47.381035 62.270927 97.808746 
-41.522598 51.906895 106.693153 
-104.428253 -45.210983 54.220535 
51.066158 27.378389 111.554810 
13.044215 -89.264290 87.926361 
4.728084 37.509323 120.076271 
22.445885 -108.307587 62.087566 
66.461639 -21.220818 104.576706 
99.011604 -40.951897 -66.524139 
15.438816 25.562140 122.695831 
-11.473041 -125.725220 7.761274 
40.512180 116.125954 -24.874031 
-68.963097 78.162987 -70.756531 
120.447304 34.660816 14.938628 
46.151722 44.304146 -108.828728 
-42.315617 -119.098999 -0.187134 
100.587143 69.062935 26.537497 
51.802063 -109.973961 36.535816 
55.852417 -46.375504 102.924721 
-78.316795 -43.960323 88.578697 
-32.074646 -103.280258 -66.411812 
-122.135788 33.093880 -9.614428 
109.657707 -11.502872 61.564999 
-47.089375 -54.576202 -104.626511 
124.652740 -15.805725 -1.074912 
-32.109947 -122.364815 6.129814 
-6.976828 70.905060 -104.617889 
-75.934280 -23.676613 97.738449 
59.501621 -105.161118 36.697327 
124.637642 5.987309 -15.884291 
-2.432857 98.075134 78.112434 
94.095154 81.927879 14.725820 
52.413044 58.228752 -98.551971 
-80.512215 42.594608 -87.862617 
38.490089 99.591553 -66.845184 
-108.227783 -66.326019 -9.047003 
79.949043 -85.724754 -45.718597 
-112.881310 34.334534 45.040298 
14.299328 0.439470 -125.900055 
-115.540993 -51.910557 1.574589 
-47.886105 -102.143845 57.691360 
106.645935 -55.188007 -39.509281 
-29.011246 74.087204 97.275620 
-83.618416 -37.913536 86.379700 
-94.548592 -75.422134 -38.690331 
-50.380619 95.598221 64.400085 
-97.801125 -79.935181 -14.213178 
-107.135147 66.760132 -11.317082 
40.326065 -82.020676 -87.818832 
96.008896 -49.269669 -65.817978 
55.442520 104.747437 41.386623 
45.584908 116.732826 8.423385 
-72.622147 41.826073 93.740791 
-67.200653 -106.739998 -16.834448 
-106.952385 64.679817 19.411224 
-35.845562 -117.873947 28.490423 
-42.891815 -83.367691 85.048363 
75.873825 -4.566602 -101.224792 
-37.941940 78.779228 -91.181282 
-46.425251 -0.989363 117.783920 
-26.984068 121.646461 -20.624382 
-96.806694 57.029823 -58.526104 
103.897179 43.629272 53.765022 
-108.408379 23.655575 -61.173782 
-32.999340 -77.190353 -95.286026 
-4.076928 -62.837147 -110.248375 
40.180607 -117.398605 23.085232 
-52.609249 -31.042715 110.500763 
77.878792 98.325356 6.629550 
19.317631 95.905281 78.588066 
-36.881535 -120.763779 13.341715 
-47.461578 104.920113 51.190010 
22.310619 29.866539 120.302353 
15.776636 101.256187 -72.737854 
-74.946335 -76.517426 66.949799 
17.371769 -112.231873 54.885979 
-76.318657 -19.762199 -99.068436 
28.728951 57.920555 107.665749 
-38.524075 116.029037 -29.256807 
-9.271659 -81.117729 95.972511 
18.371025 -89.681404 -88.123383 
85.119217 -18.480154 89.511169 
80.400665 -74.133530 -64.421257 
48.373672 -53.873268 -104.007477 
-34.910339 91.814178 78.024643 
-43.574661 -46.111900 108.993736 
-106.913933 41.134315 -52.856567 
-89.210648 81.852997 -36.311085 
32.869102 27.895010 118.446518 
-42.727394 -109.564453 46.940052 
112.684235 32.146145 -45.432175 
21.481726 80.019577 93.873314 
-97.935791 -76.614006 -23.051558 
-17.001320 59.207012 109.639008 
-89.431519 -85.248474 -27.170301 
-85.094337 11.489639 91.646080 
115.784164 -40.069466 -29.727802 
-98.857094 26.735310 72.988045 
118.830811 -42.550957 3.698320 
-51.402031 -40.589607 -108.776314 
35.219204 -42.903210 -114.478844 
-94.618057 66.993095 48.304970 
7.477884 -51.054634 116.063225 
-126.000000 -9.306880 0.894864 
52.325195 -95.667603 -64.407059 
97.871544 -26.875526 -74.039261 
-95.254128 74.735916 -35.148876 
78.823425 -55.314930 -81.648880 
45.226185 -98.356522 -66.302475 
12.117423 108.639923 -62.336388 
91.766769 31.564426 79.142952 
14.109497 -18.653198 124.343559 
17.907125 20.900631 -124.376053 
-53.840099 78.643776 82.332489 
-14.204021 -51.515251 -116.170868 
-18.334444 91.199432 -85.904488 
58.615334 -54.826290 96.719772 
-5.798331 80.846054 -96.550659 
-87.452393 -58.536613 69.513000 
107.930298 37.196289 51.234703 
-93.352058 -85.613846 -9.528652 
-104.831406 60.622467 -38.909187 
-52.449986 -104.154869 48.923332 
-52.803082 86.713737 -74.384636 
-125.999992 0.641011 -8.602581 
-36.308281 -71.766434 97.262634 
110.573059 -7.069181 -60.567848 
-1.188876 125.978203 12.898780 
-63.514168 1.360647 108.991379 
104.237671 -70.250549 -0.472204 
-14.549879 -125.383354 -0.059465 
-5.671229 125.461014 3.456261 
77.682907 76.424652 62.164177 
49.540405 -43.329872 -108.136627 
13.277951 101.616348 71.451950 
29.661352 -47.799110 113.179756 
10.672170 -121.602585 -33.689110 
-90.558571 -64.939392 59.566616 
56.243484 -112.999496 -14.131751 
-46.547325 27.878082 114.266983 
-45.377922 -58.524075 102.555191 
124.398689 15.623659 -14.394053 
80.204597 -17.812384 -95.398132 
9.251348 2.875219 125.891457 
-40.472660 50.754848 -108.683685 
90.735550 26.396807 -83.444313 
-39.323818 -55.586262 -107.316986 
-39.078529 117.118668 22.853611 
-42.328468 92.400360 73.980324 
-52.885075 -109.343826 -39.548504 
-84.813995 86.073586 34.082359 
-82.940186 1.405679 -95.477715 
7.040257 -103.745209 -71.720306 
-52.311195 6.502418 115.634033 
76.458206 59.360363 -80.584045 
84.334343 -36.811905 85.375031 
57.156689 110.949646 -16.419525 
16.326221 -102.730865 -71.954269 
-29.628492 -91.128098 82.461052 
-2.998545 108.041176 -65.068565 
108.646912 -58.938766 23.900883 
-15.954221 -110.113777 -60.800743 
46.196507 -23.411152 115.494827 
-17.002066 121.048630 27.080954 
28.667040 87.011681 -86.719383 
26.919813 99.242897 -72.149765 
-122.934837 -29.938864 4.059641 
-62.582077 -9.447445 -110.256325 
-95.295120 70.211166 -43.638237 
73.019180 -80.791481 63.263710 
62.098591 80.907150 -73.236259 
25.674191 42.390232 -117.393936 
-96.142029 -13.630674 -81.327347 
68.848091 62.286697 -86.147598 
-64.805733 101.988029 -35.192345 
22.418407 104.213707 -67.492195 
103.630173 -47.367725 52.018326 
115.385109 6.693032 -50.068840 
49.039280 -52.775162 103.217590 
22.350885 46.675407 115.701332 
87.575531 87.444542 -19.012268 
110.493782 -18.885044 -57.282139 
56.839012 78.537926 -80.604652 
-125.466194 15.775778 3.302054 
-28.427179 -47.692001 113.937965 
-60.951767 -45.672707 -101.746399 
-10.893044 -125.789658 -11.256388 
53.437271 -35.681206 -108.938805 
65.701355 98.907806 -41.380512 
93.302734 -22.963175 80.292519 
39.679504 -118.574631 -18.830864 
-23.621937 -122.579239 22.136711 
100.784149 -74.783310 -9.762827 
52.279739 -96.511459 62.087055 
13.459677 81.013870 94.707367 
85.371628 91.226883 -11.785005 
112.615349 25.029406 -49.323200 
-48.886314 69.211060 -93.566010 
67.834106 100.102219 -33.874271 
34.883904 -2.367400 -122.157150 
-51.663975 36.366203 -109.667564 
-8.892766 -89.615723 -89.045509 
-23.632530 -19.798893 122.744766 
-1.308989 -79.371307 97.992195 
-21.254860 -62.342041 -108.622520 
-50.207802 -90.738770 71.613075 
-121.473404 14.311652 33.898232 
-95.368271 -2.552432 82.204155 
11.491022 -95.521774 81.626083 
116.678101 -47.247787 -3.437580 
81.524147 -46.067715 -85.278015 
-108.437668 -17.920841 -64.286034 
9.040802 -36.529903 120.470306 
-42.444000 -23.653938 -118.065437 
63.111450 1.407271 -109.627823 
114.915825 45.632114 -22.329052 
-89.835205 -10.400450 -88.752014 
41.787445 108.061493 47.933525 
120.887833 -35.383247 0.430546 
9.307590 124.854706 8.288687 
-85.363617 -83.054474 42.549461 
-120.224617 40.691734 -12.937372 
-116.780861 48.205387 -8.200685 
87.739609 -77.093086 46.590477 
-71.357918 -51.741596 -90.898689 
111.438004 26.079187 50.096786 
-48.674667 -60.876987 -100.300262 
84.562225 -50.593590 -79.000427 
66.139961 -13.280288 105.980850 
69.535400 10.736525 -105.148979 
65.453461 -102.713928 -32.322178 
-87.903320 88.943466 15.462135 
3.269500 -25.172798 124.130363 
82.101624 49.145416 81.059616 
17.398415 34.012100 -121.058624 
74.135513 66.776649 -77.086548 
23.380465 73.123665 -100.459259 
-37.447624 -63.353241 102.870583 
-2.812047 99.851822 -76.540421 
-75.549232 101.479675 12.199615 
-120.913742 -40.188198 -10.751474 
66.063202 76.408920 73.397087 
81.210403 -29.545645 -91.639114 
-21.164894 -27.968235 121.455276 
106.321335 -19.915108 64.161301 
74.549988 97.231339 -26.564793 
60.430916 109.402657 13.955460 
-85.389740 -93.157089 -1.338278 
85.948837 -83.642944 -40.147552 
-80.151840 -16.967615 95.507927 
-45.071320 -118.217178 -11.922285 
-97.335915 -16.309177 77.912560 
91.881683 -76.575645 39.790794 
-89.007431 84.294014 27.315792 
72.106636 38.847286 94.475235 
112.466743 45.822083 -31.285751 
-115.065231 38.216091 -37.659569 
-84.554054 71.080780 60.961597 
32.668369 118.005737 -27.979347 
-82.174751 -96.202873 12.092418 
-74.236969 -51.317612 88.133163 
116.630814 -33.308434 -33.962063 
55.987122 71.724777 -87.331627 
86.427399 60.951588 -67.944702 
-54.429298 91.885818 -66.964867 
-44.861771 -8.651326 118.064987 
87.673363 67.243782 -59.651119 
21.873753 -72.030388 101.719864 
71.696991 16.289249 101.983047 
-66.332497 60.306145 -89.492683 
-97.407539 79.294945 13.653965 
-69.563667 -39.721691 97.516830 
118.838669 -7.288415 41.533813 
-39.871090 59.749279 103.472664 
77.349037 13.258553 -98.464294 
-51.203327 -96.733200 63.657528 
51.283623 -102.474129 -53.210518 
-13.876928 86.658463 -90.548065 
-2.219911 92.394608 85.329285 
88.938675 -88.847572 7.519717 
-78.861084 -58.197289 79.451401 
20.842918 86.142227 88.641754 
-36.622227 67.878937 99.430023 
35.865204 119.843132 -7.334160 
-14.290474 -36.211639 -121.231834 
39.048302 6.120986 -120.690941 
-72.361473 98.470505 -31.851532 
83.713867 -57.460827 -74.383751 
-67.913803 -32.042744 101.694992 
-12.043713 3.043467 125.622459 
-119.431030 24.993523 -33.782974 
-34.897400 91.402550 -79.591736 
-30.710802 -12.943024 122.056046 
8.478572 122.579079 24.664476 
3.747225 -121.329987 35.776783 
-31.142303 117.004868 -36.494995 
23.803288 123.001999 14.231462 
89.222168 46.859444 73.985825 
59.703423 21.787205 108.198837 
-66.320152 58.990005 89.383698 
77.111298 -96.160049 24.514061 
10.386462 70.478012 -104.710640 
-40.404961 86.187538 82.770401 
-20.836042 65.124969 105.554688 
80.389542 61.841003 -74.098335 
-126.000000 8.600824 -12.735626 
83.572449 21.179144 90.482437 
75.561523 -21.350182 97.516426 
9.495913 45.675812 -118.353882 
64.301926 -48.987812 95.723671 
96.362366 3.407961 79.586899 
75.549744 93.490936 34.585857 
20.152313 -117.316635 43.518936 
-108.371376 8.117984 65.137573 
15.729283 -125.185081 -11.294697 
-34.012623 -22.350643 -120.541786 
-38.316956 -17.190269 119.225571 
-39.637333 -39.340588 -114.704590 
-26.566229 2.058391 -125.031029 
-71.764526 -65.211212 81.990356 
-73.698822 28.545506 97.764839 
22.477772 65.020370 105.200775 
-35.586372 -52.981987 108.842178 
-93.099121 76.332016 37.751514 
-109.841248 -9.226289 -64.208359 
-55.373459 -2.357766 113.946594 
-13.174143 -108.651764 63.278881 
-26.644722 93.155602 -80.715111 
-30.699083 35.608212 -118.345459 
-123.865128 -25.101307 -3.850387 
83.999390 -27.126261 88.968140 
-113.500275 55.363045 -6.322824 
-116.846390 14.756671 46.539700 
15.811335 124.132080 -9.608527 
97.083389 -73.221176 30.933598 
32.941811 43.972748 -114.432716 
72.198586 40.620644 -94.767578 
51.437778 -67.112823 -93.768356 
28.985914 10.318295 122.503258 
64.693024 68.773430 -83.737793 
20.328522 54.265907 111.892120 
22.554029 116.819153 -42.970024 
-35.625595 -118.525696 -27.264469 
105.816582 61.122204 -30.467010 
108.699692 -64.394157 -13.542829 
-120.983315 15.532535 -36.665211 
3.871403 -114.429420 -53.567936 
-100.788467 20.332218 -73.049286 
-120.688538 -35.377090 18.701397 
51.056778 112.610817 -23.996716 
94.379501 75.608109 -32.498779 
122.836021 -25.252689 -11.033409 
-79.832069 -5.701859 -98.422241 
121.481956 -27.822344 -18.305853 
-61.148209 -74.964851 -82.391159 
42.769882 -47.979744 -109.056793 
-63.035065 9.500402 108.859314 
36.812286 119.540070 12.569176 
-104.006332 70.866684 2.960721 
-61.162880 -19.104729 -109.732742 
124.514023 15.527079 6.889719 
114.046631 -9.569004 -52.989166 
-5.566849 125.473053 -6.772429 
81.351639 -8.163404 -96.035294 
72.746483 102.708511 -11.803535 
100.907516 -44.923294 59.744629 
100.051964 68.121513 -32.314407 
-42.825176 -76.775169 90.225174 
-27.060722 114.163124 45.966606 
37.771694 -75.455193 -94.175713 
-74.047432 28.446087 -98.457436 
-121.412758 -16.418228 33.641487 
-103.343704 -44.856598 -57.860756 
-67.758644 35.702862 100.161964 
-92.567993 16.809175 83.833763 
79.958580 60.547985 74.280891 
72.064613 -61.067322 -84.943138 
12.014447 -115.040520 49.905445 
40.591095 -69.093086 -97.809067 
72.414238 -67.599915 77.880341 
-104.124504 -71.711578 -3.758616 
87.248665 5.377901 -90.448639 
-117.156158 -48.386551 8.809574 
-77.084122 96.300034 -25.623299 
75.704010 -27.081968 -97.123322 
94.813622 15.680048 -80.966934 
124.352188 -13.222260 16.368587 
25.225441 -68.902939 -103.985008 
92.728455 57.625954 62.270012 
68.761887 -98.806473 -39.833149 
-56.415291 111.102737 18.944626 
37.466366 115.255280 -33.527225 
41.164974 -51.386894 107.114807 
115.586761 -46.691566 18.490692 
-64.704758 -103.734322 31.342375 
73.692642 -73.553627 70.288452 
72.620255 3.262810 -103.839844 
32.005043 -121.619186 15.244156 
-9.558899 125.012436 12.977215 
97.608719 35.904972 -70.383675 
-111.615143 -56.745110 -20.974182 
103.876694 -54.600517 45.007278 
35.294754 -117.538055 -30.397987 
-23.701828 -110.714752 57.083229 
64.560295 -89.506233 -62.319954 
21.380871 -45.688530 116.542656 
-74.443863 85.095222 53.738037 
66.156937 -6.518409 -107.774040 
-123.563217 -13.914431 25.284336 
77.778244 -40.720337 89.420006 
-81.259781 -49.868210 83.360695 
-79.649002 47.980831 85.225594 
86.298920 -91.348404 -0.606185 
81.224548 95.155701 -5.432289 
-7.821618 -104.435921 69.720627 
-18.984642 99.277603 -75.120209 
-88.668777 48.499565 74.968208 
34.342308 61.387566 -105.078629 
-34.491947 -81.530075 90.045082 
115.397461 16.081829 46.735718 
-99.455627 -73.065903 25.981228 
-109.569740 -39.645279 48.639397 
101.990417 63.205116 -38.586117 
-78.928650 -43.285118 -89.336945 
-45.170753 55.884918 -104.392479 
63.830940 -93.687561 -55.349113 
87.598572 -0.627542 89.117142 
125.000000 -7.469917 -1.030146 
103.065712 -11.941156 70.613853 
-92.553368 30.413181 -81.030975 
-12.239893 -120.472641 -37.878910 
-61.271172 109.759773 -1.452507 
23.680801 108.413269 -60.052925 
-52.691963 -92.668182 -68.434631 
85.198906 60.935734 68.141556 
39.486343 108.329926 -49.725853 
-67.142448 47.550644 94.612335 
-113.071671 -12.549015 -57.167114 
30.067011 116.735939 -38.050274 
-28.885670 109.124695 54.826836 
81.178398 90.191666 29.321873 
-26.432381 19.630438 -122.882156 
-111.576263 44.928764 -39.902863 
109.067719 -63.852249 9.879739 
107.361069 17.813278 -64.119415 
71.329391 -21.282465 -102.429260 
-34.455223 47.699364 111.444344 
2.020857 -121.915535 -35.332100 
-10.758913 122.887360 21.608686 
-86.466782 -30.554451 86.730576 
72.719070 89.914642 46.868160 
-121.216805 20.178486 28.185013 
-99.161133 -67.519913 40.686974 
80.525902 -65.717575 70.519180 
46.586868 -108.881485 -46.012810 
78.690559 96.473671 16.613686 
-101.065865 -44.075706 62.203506 
17.847588 -62.907871 -108.916710 
91.324875 -79.338348 -35.993633 
14.663568 110.585320 56.569359 
85.677536 11.597980 90.311951 
-109.257477 -0.532498 63.974556 
-102.792480 -72.285583 16.192810 
-105.665413 48.187737 -49.139378 
89.716690 -54.853600 -69.909561 
9.195022 30.340199 122.098701 
32.023499 9.821956 -122.673103 
-46.716335 -34.271133 -113.384781 
48.932800 115.247581 -16.022913 
82.536179 3.010527 93.913086 
41.791351 93.041885 -73.883492 
98.959793 -52.930321 56.673870 
-107.142853 16.310852 -66.105972 
-125.496887 1.419544 -16.616203 
-103.658035 -12.674035 -71.948196 
-35.232792 -103.395126 63.940659 
-116.954247 -38.594372 -31.576262 
44.974205 -112.537025 -39.048935 
124.703278 14.542931 -2.879742 
-5.271510 107.917236 63.972221 
13.348917 -75.487350 100.713272 
-13.968807 107.859940 62.917141 
-98.094063 72.111076 31.191483 
45.865551 99.596481 -62.636551 
-65.703049 -39.183010 -101.831612 
108.677025 27.288172 -56.760170 
-3.512866 -39.690998 -120.836685 
-92.416878 85.499802 9.611829 
56.683842 -16.736191 111.210854 
44.305813 -104.197746 -57.212074 
45.030167 115.854355 17.868050 
57.734898 9.432275 -112.440216 
-107.094864 -47.379162 46.824577 
0.446574 -103.569046 71.946495 
-52.463497 -109.894119 37.253036 
66.477264 -83.109619 -67.947845 
83.801758 87.923721 -28.772938 
-3.281337 76.515617 99.519814 
97.982239 -66.721695 42.127228 
-79.864700 19.433123 -95.999329 
-48.641747 45.030933 -107.904556 
-99.375336 -70.464775 -34.714256 
-50.887146 88.736603 72.224632 
48.705833 -115.563919 -19.394630 
-31.396160 34.166031 117.566750 
20.268492 -121.534409 -29.893204 
63.690788 35.052177 -103.636993 
-35.234673 -70.745636 -99.641434 
-51.856136 -74.410675 87.924049 
-101.385788 -21.261534 71.307472 
-87.193710 -74.533615 -53.867615 
-54.638084 42.305717 105.163071 
-108.654388 63.035294 -18.706020 
73.413513 -47.029160 -91.222855 
110.065384 60.675537 -7.422700 
116.994812 45.556759 -3.541090 
-82.232574 -31.954845 -90.782349 
-61.992523 -90.263870 63.652458 
80.473389 -47.122154 84.769501 
-37.318253 -6.480857 120.557983 
-93.527245 54.921810 -65.965988 
60.295547 -110.366180 14.610853 
112.312523 -49.920010 25.771582 
-33.922184 107.937958 -55.140053 
47.765854 -64.779053 96.607185 
-78.188705 -89.356277 -43.694309 
-7.404239 -122.168045 -31.373438 
106.732971 36.922981 -54.956184 
-80.351120 35.033310 89.848289 
-79.722198 -80.209229 -56.831123 
-97.252579 60.163807 52.638382 
-112.223053 -45.993927 36.118591 
110.102562 11.247467 60.518967 
-82.850952 88.691544 -33.044533 
-31.682655 -114.670616 -44.870335 
-104.384033 -2.588552 -71.370972 
120.513535 -13.867453 35.418911 
-49.943329 97.758644 -62.662209 
-115.358147 46.611092 -22.094822 
89.652367 78.159920 40.293682 
91.626015 -46.796692 -72.615326 
-80.785271 2.258044 96.519218 
62.782940 108.340080 5.870837 
118.718163 -39.207142 18.840927 
77.702385 -13.650940 97.278351 
-26.482006 -82.539917 91.377670 
40.546391 -88.628365 -81.254807 
-73.427567 71.671768 -73.476112 
115.852127 -40.287071 28.226505 
35.648567 59.859734 104.418488 
103.567741 33.744839 63.142029 
-122.039719 -34.593468 -3.817868 
-47.032749 59.819874 100.313583 
57.944458 -73.748657 -85.466324 
44.386311 -44.360878 108.994659 
-99.080009 -36.460415 69.113098 
61.683937 99.422333 44.145145 
10.789248 16.754562 -125.451462 
-43.309116 -75.977524 -91.728592 
23.175116 -85.625000 89.380096 
-62.708443 91.340469 -60.371330 
1.760617 113.311142 -54.130547 
110.518074 -49.141926 -34.381329 
-41.258678 87.271416 -81.885170 
25.253368 32.139988 -120.142838 
109.065048 1.692272 -63.858059 
30.447695 104.880051 61.859772 
6.660251 -66.853577 -107.621437 
-72.341873 92.449776 -45.651901 
-60.775753 -33.953766 105.363968 
97.884399 38.028656 67.975960 
80.047195 -79.421051 -56.255558 
116.469048 46.703903 -11.603619 
-101.054863 55.632370 -52.064850 
-112.420059 50.527657 26.444292 
-122.641533 30.464027 -1.664502 
-58.013798 -53.281185 -99.674271 
1.383043 56.615562 -113.491173 
49.950020 -24.697361 -114.146851 
-95.322784 -4.796499 -83.263847 
115.604919 -33.246979 36.696728 
106.445869 -48.750893 -45.887642 
-7.368950 -46.715088 -118.476799 
57.189629 26.840286 -109.216621 
33.615189 110.493523 48.534336 
-108.196259 32.274128 -57.331177 
96.344604 79.610207 3.454109 
-97.595192 13.316243 -79.159714 
-116.421936 -47.582008 -18.498413 
113.370834 -54.463623 -6.041618 
61.396427 -94.566971 55.371750 
-29.862860 122.083885 3.630620 
122.677856 1.912593 25.075155 
-8.667328 102.673843 70.880775 
-11.573866 115.689087 46.560013 
-89.142975 -83.588959 33.068542 
-113.610962 -56.121536 12.227397 
-42.228622 16.168171 118.053513 
-0.409254 -90.676300 -88.854500 
45.181221 1.485065 117.862015 
-112.509445 -58.524841 -10.246833 
-67.447540 -49.191624 94.347343 
72.045227 67.849258 76.909164 
-107.741249 -53.254730 -41.294739 
-79.873032 33.448212 -91.770760 
-15.947276 69.894127 -104.792976 
-58.980431 -79.149277 78.980873 
6.292498 75.857803 99.917786 
88.510429 -84.703918 -29.185017 
69.957542 102.116898 -22.296310 
94.831520 62.574631 -53.002945 
55.077103 63.982922 91.966835 
14.202740 -100.055649 75.018143 
30.175236 -39.942219 116.459938 
120.140770 23.621843 27.103727 
-55.296524 -110.259796 -30.442682 
2.448337 37.598148 -121.188286 
45.265774 -73.906616 90.991554 
121.808708 2.546493 -30.594702 
65.928391 93.902260 -50.553730 
76.261292 -63.069698 -78.395493 
-62.919685 -107.165337 -25.292727 
-115.238220 42.270699 29.425091 
-110.559166 -1.378533 -62.780006 
81.088966 -82.343887 48.622044 
-22.473326 -32.837391 -120.938927 
-74.819435 -1.956559 -103.109909 
-77.673264 -100.467438 -4.417782 
-23.325012 85.774261 -89.538727 
35.240845 -104.174408 -63.222267 
-75.038757 16.055267 99.874542 
-41.272709 69.943237 -96.510101 
18.570253 119.338203 -35.679718 
106.064751 -26.218201 -63.348442 
-93.192833 -43.672592 -73.464539 
80.284088 41.108162 -87.798920 
-117.912346 -8.936520 -46.736702 
-98.062714 -28.036467 -74.946274 
-103.150101 19.412115 69.518234 
-118.145782 -30.362116 -33.486641 
-103.444489 -72.604118 4.224698 
47.191368 -32.590137 -113.073250 
58.606293 110.700790 -7.915851 
-21.264524 43.609051 117.023628 
116.162117 24.030800 -42.081375 
-72.850090 -42.369179 -94.780853 
99.392654 61.744312 -45.940636 
33.002113 119.541748 -19.950569 
73.579750 89.878380 -46.545494 
-56.452255 -111.729660 -21.438299 
85.518257 53.290825 -75.128510 
-85.321518 89.261047 -23.882242 
48.589569 94.094299 -67.760864 
-66.772255 16.524769 -106.483047 
17.718904 -120.072632 36.491405 
69.827377 75.711624 -71.526031 
88.392654 -3.831032 -89.364861 
-37.595829 -106.672890 56.340759 
-68.890038 94.949387 45.317329 
-32.545040 62.581264 -105.316711 
-112.340164 5.251961 -58.894180 
-65.211853 69.640472 82.253983 
-84.532318 -51.118324 -79.780106 
-85.747169 -70.718559 -61.622963 
-17.851799 -90.437469 -87.521675 
106.956345 63.128860 19.942680 
41.042316 118.186462 -13.338289 
-27.835915 -120.547005 28.474983 
-116.271217 -45.426311 21.426720 
-8.459377 1.257932 -126.365685 
58.848770 -105.972412 -35.543335 
-125.424416 -16.993023 4.983561 
89.959747 45.336712 -74.812653 
99.650406 -63.798183 -44.001698 
-17.887239 -37.514141 119.500946 
-85.280914 92.064575 -14.652908 
50.599251 98.894745 57.730530 
57.831360 52.199703 -99.241005 
-108.215584 -46.604214 -46.292080 
-15.183946 -121.902634 -29.395889 
-40.966904 113.192490 -39.115402 
-11.594905 123.287445 -21.573595 
49.520191 77.534317 -86.339020 
21.535761 122.511612 -18.265804 
-121.608139 -36.837677 10.508364 
33.180565 -22.376135 -120.529427 
13.040519 -83.182793 93.542961 
-114.151184 -1.736197 53.942871 
61.718071 -102.179886 -41.787632 
73.976151 -78.795563 -65.494019 
36.411072 87.569748 -83.588997 
-77.442207 -34.400036 92.807991 
117.878960 -25.807758 -36.176929 
63.648121 74.815651 -78.215477 
31.118462 121.362091 7.096056 
-76.030640 -68.300499 -75.625877 
66.902344 100.878433 31.381460 
-26.047447 -36.394516 118.375252 
-95.854340 5.737209 81.566193 
37.189369 -79.338867 90.451347 
-62.758781 52.754971 -96.241173 
-80.655479 77.429131 57.464191 
12.118809 43.347248 117.869202 
-38.726051 107.587036 51.423798 
73.957481 79.659988 -63.238625 
86.040367 -22.433439 -89.150154 
-123.542175 25.780670 -12.197948 
-13.072058 -96.949615 79.440453 
114.412727 -1.193056 -52.190411 
-32.193039 -121.858337 -16.345291 
-23.176544 -25.171669 -122.700401 
-102.527359 -72.921852 -16.490330 
7.719469 -57.780037 112.096695 
-40.444157 -102.610870 -63.666042 
117.247017 -19.610146 -42.490845 
-62.767715 -109.913902 7.378348 
-2.050803 -109.290512 63.730907 
37.369133 -113.661331 41.431259 
-107.892014 -65.269180 17.071775 
-27.357321 -76.257591 96.650131 
-21.114939 -119.874748 36.837761 
-36.163696 39.984577 114.358513 
-99.077263 53.393501 57.183186 
87.798813 71.329102 52.844658 
-79.255844 56.248356 -80.754082 
87.484108 28.879721 85.303764 
-105.277542 -5.442966 69.198227 
113.336761 -47.884369 -25.463455 
-3.425261 120.888855 -35.307549 
83.344551 81.598167 -45.790398 
-83.874359 -83.183769 -45.507191 
21.253613 106.308556 64.040787 
22.655699 -0.511086 -125.257248 
-0.223979 -31.973782 122.396439 
11.112005 -81.503471 -96.424873 
68.176353 -4.620365 105.544830 
-71.049316 49.963734 -91.719841 
-74.321907 -86.082298 -54.941864 
-66.721947 74.143600 -77.113373 
-35.752609 -116.365120 -37.173679 
-27.835384 122.732681 -4.068219 
52.041790 -108.969147 -40.279076 
-96.842865 -78.888168 19.472687 
17.863306 59.863129 -109.914352 
93.939972 -80.454819 -23.170277 
112.384239 -35.303822 43.955132 
94.940948 -73.184052 -39.706615 
43.475998 -114.549713 31.161585 
109.111534 -35.439228 51.050484 
29.450752 121.895752 -11.880038 
-12.705564 22.836178 -125.009186 
-88.991425 75.800941 46.531235 
18.572718 -103.866570 69.162148 
5.502747 107.952881 63.662796 
116.390450 -18.653078 43.933178 
116.147728 -2.639489 47.404957 
63.804771 -28.892319 104.282127 
-71.509262 -66.065811 -82.304581 
80.263573 -66.150673 -71.205002 
-90.643646 -84.766541 24.392605 
-69.884300 88.075401 -56.637402 
-13.182907 -58.878712 -112.115318 
-44.006035 -118.558067 9.842810 
-88.142746 13.539124 -89.592255 
-86.623154 90.988594 7.114649 
42.893589 104.379082 54.750290 
56.423119 91.644150 -65.076225 
-53.652035 -48.803249 -104.523582 
110.410408 55.612957 20.428995 
-18.866743 -113.253296 -53.569782 
-53.052132 -104.184738 -49.027737 
78.103714 17.518524 96.087791 
51.827374 87.529587 72.382408 
-14.405335 50.126450 115.370163 
117.344734 42.583065 16.807997 
43.379986 87.218781 -79.694199 
-44.122841 -113.150711 38.065659 
45.816376 -83.598953 82.546722 
75.418503 -82.948257 56.131607 
-72.944962 57.088875 85.548866 
-69.416962 -93.886414 -49.236900 
30.714083 113.190872 -45.808868 
-62.018986 40.513279 -103.167053 
-51.000019 -113.774918 24.732605 
18.790421 -73.666397 -102.176826 
5.383031 119.109344 -40.871983 
9.984619 120.114670 34.841553 
-121.529892 6.769702 36.244576 
58.449829 90.970444 63.434071 
-79.288506 81.066940 -54.437782 
-103.025261 72.154350 -4.700138 
-32.922634 -83.794144 -89.552612 
-119.763779 41.697205 -2.218253 
53.652996 113.500473 6.924292 
19.807590 -124.714508 12.401047 
-118.315659 -15.553540 43.423111 
31.346209 106.391594 -59.102253 
13.718471 -118.916275 -42.105862 
41.521606 111.562637 -41.860310 
97.375366 26.380892 73.564400 
-60.185593 90.672852 63.257484 
-97.213013 -69.017349 -43.213257 
-15.852878 -112.159782 55.285473 
38.806366 115.904564 26.817799 
50.589249 -77.546768 85.623383 
-15.440783 124.333755 7.745847 
-47.011974 -109.201775 -45.691959 
-111.961693 12.243871 58.202271 
72.115242 -72.810699 -73.621735 
117.435501 -6.954225 -45.595261 
-64.682823 -107.658592 17.199780 
-29.400381 -60.225632 107.102623 
-10.733406 94.472900 -82.903549 
116.537193 -47.555225 9.278348 
-114.965187 -0.322201 -53.166855 
99.024368 -75.618942 17.143372 
-52.389034 -46.401947 105.116119 
-117.785675 -24.816105 39.808105 
-115.470322 -52.064758 -6.483470 
41.671814 -38.146347 -114.008476 
-34.553036 -107.683563 -57.043789 
-93.369148 82.051193 20.805067 
-7.225423 38.024143 -120.875549 
50.755909 93.626152 65.800362 
-7.959647 -112.173134 56.748478 
-34.956543 -116.390915 37.164932 
24.905897 -76.969681 -97.448044 
-28.610548 66.970070 103.036613 
83.698914 -93.811554 12.825195 
-62.744061 -104.577652 -34.898788 
-97.457428 79.462128 -9.797221 
-42.744965 117.961609 8.307600 
-91.071953 -18.031027 85.226448 
-76.043839 79.704277 -61.567379 
-0.234309 70.777702 103.919029 
-106.274673 -55.473045 41.306854 
49.577560 23.917522 -114.179657 
90.307259 -81.496223 32.782486 
52.294323 113.662735 15.234099 
52.436893 -100.232582 54.834442 
55.472946 -113.471817 -5.100334 
123.163498 22.549831 -0.405784 
39.520443 -108.515465 50.389809 
14.575420 -123.267738 -24.422018 
42.249378 58.279087 -104.090858 
-28.494503 104.609093 63.845890 
-86.244987 -24.046612 -89.407051 
98.675987 20.591518 -74.750244 
-103.011856 10.847059 -72.962936 
64.379471 -53.307232 -94.628311 
-64.817062 -16.353094 106.822365 
10.547398 -73.838554 -103.274979 
-43.994534 -114.975571 29.532066 
-44.358795 116.595139 -17.918659 
-1.876406 124.162476 20.524364 
-28.121878 -118.565079 -38.750290 
103.792885 -40.027431 -59.071865 
103.753357 1.906152 -70.886230 
55.434143 52.159679 99.642708 
79.734512 70.403839 -67.633812 
100.963196 73.548309 5.573523 
-40.066513 103.222916 -60.681099 
109.582581 46.878151 -40.253422 
52.568092 -84.306839 76.864471 
-100.460464 2.094012 -76.520638 
-117.041313 -16.941938 -46.547173 
-73.901749 12.828753 -102.684830 
42.898849 -8.856131 118.371628 
-64.632233 -53.078255 -95.143204 
-13.589954 -115.711349 48.067822 
-97.728943 -80.105759 6.672186 
-24.840630 -97.567657 75.972229 
88.556732 -11.645967 -88.817184 
-100.251884 -6.899720 75.794403 
-54.441654 5.614540 -115.453873 
-15.883353 -124.079224 -19.009146 
-93.695961 9.433195 -85.201706 
46.050686 72.562645 -91.885010 
-90.721283 0.407917 -88.106155 
-60.813534 -100.124962 46.892124 
-46.607315 -91.146042 -74.606873 
88.977242 17.544548 86.146866 
-18.681532 123.162857 -18.050762 
11.423484 -122.290718 27.716612 
73.814491 -84.363541 -57.244694 
-106.082588 27.034847 63.360527 
24.658428 -96.482895 -78.060608 
-50.178665 -115.794167 -17.729992 
102.380867 -16.776802 -71.062088 
109.636505 61.611267 1.145815 
-110.558517 31.123484 51.814274 
85.374008 75.912842 -52.120201 
122.711189 -25.901831 -1.327065 
76.775291 43.968864 88.671104 
-67.899948 -92.232941 53.275642 
76.354301 81.583000 55.471542 
-87.828529 -90.039696 -16.387056 
-67.430992 78.752739 70.479385 
51.474884 109.928032 -34.372524 
2.070755 -85.235657 92.591736 
-123.277679 -28.156048 -11.697115 
2.556320 -80.250237 -98.121407 
-83.665596 -87.230103 -38.070412 
-6.357129 103.681206 -70.656837 
119.400146 0.791857 40.308781 
70.400009 -100.331177 30.031704 
36.740822 -58.246685 105.484436 
51.230984 -84.025124 -79.240013 
71.551773 -47.210693 91.376472 
-52.179535 -9.675268 115.433441 
-27.164312 -108.542809 -60.138168 
47.625732 84.753922 78.709557 
39.840218 -70.894073 95.880905 
-33.768864 -95.210419 75.359322 
21.159752 -121.280190 28.902103 
13.695078 96.902054 -78.999817 
111.815826 -57.856369 2.310445 
-43.710972 -69.191986 95.737953 
56.253117 -51.240849 -101.448746 
74.257935 -36.980839 -94.694870 
67.633621 -42.512188 -97.921730 
-110.134399 57.834297 22.108044 
69.338951 30.025528 -101.039169 
62.717781 18.178474 -108.166367 
-7.874669 -112.222107 -57.804691 
86.810371 -66.497162 62.495781 
29.689606 -109.065498 -56.948906 
-105.620773 63.497955 27.365482 
111.417892 3.768313 57.724594 
41.122398 30.652983 115.537979 
77.248566 -5.561731 98.922417 
108.337738 63.046997 -16.248585 
-36.463814 -96.524323 -73.474686 
-104.052719 -63.397167 35.862701 
-39.884441 33.212036 115.820435 
-20.792198 -44.388824 117.171852 
23.849823 13.645601 -124.379250 
31.971708 84.612099 86.886459 
-4.032496 -90.591652 87.716080 
-111.463402 23.502119 53.797863 
-19.478050 104.007462 67.611504 
53.326042 16.959059 113.039581 
65.049591 61.352829 87.958351 
115.803116 31.268919 -37.878124 
69.423332 96.972275 39.726196 
-51.141064 -116.274857 -0.420133 
34.230648 118.834045 20.063063 
96.780106 -80.038612 9.197538 
-26.273556 -120.844368 -30.446850 
-70.669998 -94.587067 45.219246 
-93.602966 -85.376137 -0.398582 
-16.508724 -3.610672 125.133392 
-64.474167 -56.686462 92.478348 
101.171890 65.003967 35.564800 
-44.875519 -45.985210 -109.442909 
37.692089 -40.569172 113.516434 
-70.815872 104.364944 -4.692100 
36.807957 -62.957321 -103.960899 
-122.036758 7.764610 -34.608837 
71.542564 -104.388985 -6.491564 
-46.705818 115.910423 16.830200 
26.415810 70.903511 100.487297 
-21.090660 -73.197296 101.208435 
-79.708458 -7.905103 97.539352 
-50.700535 110.730362 34.223137 
89.504211 13.824221 -87.255302 
76.153000 93.276405 -33.887707 
89.336136 -31.071785 82.983047 
-0.384027 0.677447 -126.940659 
96.234589 -14.624381 78.673859 
110.334610 51.904137 27.391918 
91.328247 6.577453 85.583763 
-4.355683 -126.516037 -0.802261 
29.480974 -120.666901 -24.592247 
122.702660 24.946203 7.469777 
-91.857346 38.024033 -77.798325 
125.000000 0.108066 -9.882156 
121.357178 -5.545082 -32.942696 
18.979370 -81.858681 -94.868896 
-112.155334 -9.327759 58.297462 
-110.919235 -39.085545 -47.407433 
-82.111282 -76.873711 57.959785 
-115.234360 -14.419328 50.583641 
98.297279 -71.216827 -32.720364 
42.622986 90.334244 75.549835 
-6.186595 -83.974319 -94.366310 
25.033440 120.333221 -28.037895 
-51.793846 -19.451385 114.104866 
-8.394462 56.425205 112.327438 
43.152660 81.042694 85.503723 
-124.240738 3.084920 22.148153 
23.516186 -123.618607 -17.395184 
-74.546600 -12.400526 101.432137 
-35.048225 -39.953018 115.310852 
-23.440895 -69.669662 -104.050026 
-41.863716 27.118677 -117.459686 
-103.149155 39.129372 61.410091 
-21.902929 -106.363930 -66.396156 
-109.093002 -65.190445 8.676335 
59.018127 57.451454 94.044113 
-43.084564 109.533737 -45.701172 
112.650146 15.527990 -53.997410 
97.444733 48.684875 -63.658222 
19.420391 4.938055 124.693794 
8.727993 -21.710407 -125.261475 
-66.498123 68.163795 -83.661339 
-91.217651 86.635910 -8.971721 
-58.079514 71.440590 85.879883 
-15.396933 -5.690628 -125.801826 
57.394917 -11.648026 -112.349060 
-56.305164 50.782887 -101.635094 
-6.842250 -115.674179 -50.471642 
15.923763 -123.293114 21.101292 
35.693005 -120.898239 -0.246599 
-117.509857 -37.988766 28.940403 
3.013843 21.953836 -125.261459 
-32.816822 103.706444 -64.224426 
2.790111 -34.823681 -122.317856 
-7.673331 113.951607 -51.872864 
120.626350 -17.476187 -32.553204 
-101.970398 73.538849 -12.602844 
-81.325684 93.886505 19.273323 
-85.981812 52.882061 -75.884415 
74.264008 101.749878 -3.324284 
-31.135885 25.384369 119.588890 
-60.901829 -88.806175 -67.165192 
27.907280 -45.578815 -115.867729 
125.000000 4.108413 -2.633410 
-52.390156 114.779480 2.521419 
-13.276192 116.705330 -44.937881 
45.658051 -104.599693 54.454155 
-103.462440 50.607285 50.621658 
-116.803459 3.895066 48.156086 
-12.193538 -45.774551 117.507675 
-30.746048 118.984100 -27.490198 
-97.536873 77.330612 -19.511953 
-125.020981 12.119225 18.090893 
103.200821 26.284199 65.967896 
-13.664164 -124.779839 16.570621 
-119.861435 -39.429062 -19.083658 
-14.779916 104.681763 -68.215088 
-59.239914 -69.024269 -88.523499 
-12.390515 41.780434 118.379150 
-15.282253 77.944473 97.425301 
60.992035 -42.408169 -102.789536 
70.642395 103.347488 14.970493 
-45.705009 -105.875580 -53.440208 
-106.745178 -16.702677 65.789902 
65.755623 86.982933 -63.091782 
92.547974 80.216614 -26.302021 
58.392754 -99.707855 -50.339703 
-57.422375 24.843300 -110.328590 
-92.107277 -23.522121 -83.960632 
1.070838 -96.001930 82.460999 
-65.620987 -90.546944 -60.343739 
-97.760323 -20.275669 -77.553383 
17.553637 -54.920998 112.429893 
70.350845 46.801918 92.131355 
119.192047 -41.762825 -8.935623 
104.087418 50.270866 47.469398 
-30.417072 -22.899250 120.440025 
-87.456696 56.444099 70.661011 
-55.291046 -65.351860 92.198677 
-21.683523 -124.590721 8.610426 
69.146538 88.211670 -55.954914 
10.418327 82.067123 -94.789398 
-33.257484 53.602715 -109.744926 
46.074657 113.276276 28.212002 
22.258606 -97.810234 76.303879 
53.065899 -68.647293 90.837906 
-75.945503 99.718369 -18.351017 
-104.617767 -34.926018 62.969666 
47.935284 -1.394251 -117.980713 
109.408936 62.107784 11.851273 
93.254295 -68.903564 -48.565384 
-30.277348 87.510872 -86.090584 
-92.522186 -64.857536 -57.230392 
-25.780098 -5.792915 -125.054871 
97.030281 -42.223839 67.255852 
81.684517 18.535019 -93.383797 
-29.051559 -15.813398 -123.011932 
29.577600 -56.619278 108.668404 
-57.718739 97.222633 53.754505 
10.643500 -119.749268 39.871086 
23.581776 -108.578384 -61.828426 
-71.009468 -105.236450 13.068280 
49.082134 104.375443 49.292824 
92.656708 -59.922585 -61.658218 
-21.161903 -101.612625 -73.019272 
-0.162880 -14.801916 -125.901550 
-7.851450 -5.272618 125.942749 
109.737297 19.507803 57.124035 
-37.358730 -88.950729 82.113724 
-82.501411 80.072960 50.170380 
-121.403816 -31.276596 -19.187111 
-27.172634 97.916183 73.208954 
1.568172 47.781052 -117.955353 
110.848907 39.960991 42.810242 
-85.537003 -90.382828 21.794344 
-29.316795 -92.496323 -81.778320 
114.322975 -28.171333 -44.347130 
15.154335 90.901527 85.376022 
-71.287292 -102.744385 21.429670 
88.549469 64.892563 60.126160 
125.000008 -1.333810 3.856518 
-61.158184 -94.550392 57.008690 
-108.754242 54.935074 33.125572 
110.934105 -25.926020 -52.781948 
-59.262043 105.182770 35.812984 
-35.426388 0.350384 -122.303566 
26.800528 99.111809 71.391159 
-74.130730 3.545954 102.529121 
17.714132 16.932234 124.112808 
-59.687862 -96.593025 -55.608097 
50.236481 -38.893456 108.488785 
-125.078522 16.648155 -15.101189 
32.058292 80.856583 -91.204758 
28.964973 19.352877 121.013275 
48.212940 109.264328 41.053082 
114.158997 51.271812 13.813543 
-12.867162 -119.217834 40.693317 
100.124817 -19.172699 72.527657 
-50.856823 -74.186203 -89.602119 
82.682350 73.816544 -59.843460 
106.391068 -5.533224 66.424232 
-85.947624 91.628555 -5.211295 
3.159594 23.213799 124.243042 
-76.406143 90.073975 42.489231 
-39.511372 -111.717354 -45.557697 
4.432183 -72.513069 103.333923 
58.794495 41.119556 103.021439 
27.854782 -123.406464 -7.859516 
94.004509 61.982639 54.126228 
-100.348465 1.017014 75.667641 
-113.355476 -52.979473 19.373825 
-87.553925 37.556156 82.301941 
74.452545 -94.629250 36.896690 
-58.887646 32.782440 -107.426773 
-4.015695 46.085125 117.476257 
7.769543 -13.831388 -125.806892 
-53.873348 -64.096245 -95.054672 
-35.020859 22.030701 -120.188980 
110.489929 46.013199 37.314419 
88.926735 -29.247425 -85.207626 
67.254478 -71.266212 -79.817070 
-80.723396 27.013006 92.451324 
-120.284676 40.560699 12.381444 
55.948540 45.856602 -103.698273 
111.976334 -5.942408 56.506187 
64.541016 -24.634104 -105.972801 
-80.488907 69.461334 67.708572 
-55.846359 17.303040 -113.083794 
-20.965071 117.050072 -42.888374 
103.258820 53.550705 -47.329456 
-72.094528 101.913391 19.556313 
-76.131454 -94.097115 -37.638325 
-52.901688 114.490341 -7.375297 
105.083504 33.058773 -61.596470 
29.537800 77.651382 93.664474 
-17.181873 -122.260391 27.398697 
-110.611099 61.666698 10.606933 
-124.344452 21.608831 -2.752264 
122.999588 21.125252 15.192541 
-94.104248 20.440826 -81.820213 
-3.976659 -118.922867 -43.864510 
-5.099803 125.200714 -15.658174 
61.677670 57.023849 -93.824829 
-75.470146 101.554596 1.577005 
122.295372 -9.725417 27.064043 
-7.340292 111.921913 55.518238 
-54.714912 -114.465485 9.420001 
23.643784 66.559280 -105.020233 
49.532524 6.961046 -117.338661 
-101.415718 60.179665 45.172810 
-94.492508 43.959641 -71.300377 
49.007587 -89.770256 -73.924248 
120.362808 29.245384 20.576618 
-113.620842 45.064205 -31.290554 
-112.362915 31.078918 -48.762138 
-111.805580 -22.566082 -55.006977 
110.794586 -25.734774 52.465130 
-6.231365 -25.161535 124.087379 
-94.291443 31.657114 77.150475 
-103.195526 8.002878 71.930862 
-69.121628 -20.010799 -104.750412 
-65.947289 -70.767548 81.466705 
-12.922361 -19.474094 -125.276741 
-82.895660 -90.407440 29.753656 
-42.205376 -115.480881 -31.361862 
86.920547 89.759476 6.529220 
-104.421204 62.253540 35.014446 
112.209648 -54.795715 -17.792789 
10.530465 38.013420 -120.593407 
6.599386 -123.699158 -26.015884 
-69.227921 103.939865 -18.736090 
111.526520 6.916200 -58.487587 
-100.434029 33.622791 68.368568 
-19.472517 108.294861 -61.874516 
-61.371384 82.031387 -73.665749 
57.436096 -109.975075 -22.547932 
19.324173 -63.615265 107.075958 
-71.997551 -29.093290 -100.346161 
109.779167 54.037769 -27.575171 
9.203194 -90.792358 -88.001892 
-23.222219 -123.914841 -16.187916 
52.206631 99.432899 -55.728535 
50.052471 15.418141 -116.293533 
-93.729805 -33.169338 77.607277 
-86.235016 -13.502032 90.554764 
-106.838722 41.515533 51.755810 
66.504776 -80.329422 69.803528 
-6.231003 61.258930 -110.437027 
124.556282 12.392096 15.307337 
-78.938789 98.268517 -5.605680 
-49.125095 110.102531 -40.389015 
58.353382 -36.927433 105.180824 
-84.965324 -93.559166 -9.656689 
39.614140 70.303566 -96.672798 
123.385323 -0.940142 -22.396345 
92.034119 -85.915047 -8.729601 
99.732224 -76.163956 2.888355 
120.232407 -38.791466 11.156492 
28.394739 -99.707001 71.237434 
-114.993301 52.105511 1.594886 
49.529068 50.524910 -104.580421 
7.571473 49.509708 116.223480 
99.802536 51.977222 -55.889378 
117.944878 36.907700 23.260660 
-69.338699 -99.985550 -36.671413 
12.679335 -125.536995 -3.726683 
-96.934204 63.371433 -49.843937 
-86.296906 21.613367 -89.806572 
118.633423 38.339676 -20.082203 
106.379059 -27.433441 61.104626 
-78.578934 -67.425407 72.329407 
32.242966 -121.428696 -16.644054 
83.571114 -7.547569 92.932632 
-120.693916 -14.727095 -39.462048 
-121.042946 -8.536083 38.776684 
-67.376472 -1.786478 -107.640411 
108.159554 -52.649872 36.997597 
28.988739 122.043610 -1.661648 
32.071358 72.191055 -98.711647 
5.448137 -43.788685 118.453278 
-91.292480 82.503662 -27.556158 
33.972778 95.534805 -74.082916 
14.154698 9.098177 -125.678528 
-103.676682 -23.832891 -68.796906 
79.294487 85.011490 45.225311 
13.261021 -46.773548 -118.026794 
102.710686 -33.145718 -65.940735 
-75.843681 97.116531 25.081390 
-32.063866 -54.622524 -110.239273 
15.836423 52.497768 -114.558975 
-3.095456 -48.107567 117.134888 
3.833197 -48.437202 -117.997490 
101.674637 -48.230209 -56.173897 
-70.294487 -3.916339 104.864227 
-36.092533 103.977005 60.633713 
33.627281 35.207413 -117.632431 
-12.196499 124.708099 -12.349199 
96.710686 -35.412521 -72.397781 
86.771667 -73.045738 53.842018 
92.035263 23.202419 81.506927 
20.595573 -36.452003 119.116730 
98.840546 -33.672405 69.640106 
-51.182461 -24.210079 -114.039001 
-74.142044 -75.337074 -69.893570 
0.814596 82.330154 94.400787 
41.674694 -118.577080 14.989202 
122.306747 16.269112 23.338188 
125.000000 -9.121269 -13.607346 
117.663925 31.153114 -29.658342 
-83.013390 -17.164558 -93.513191 
-53.719612 -80.362930 -82.545288 
81.676842 37.346420 87.002098 
-32.957436 113.819260 -43.829548 
16.315804 73.848213 100.860847 
-20.936241 87.238266 87.967270 
-71.369354 -82.829208 -64.580017 
-2.351746 -39.843025 119.764801 
119.464844 -31.548435 21.798038 
-54.897003 108.512177 -33.566132 
99.156837 -0.219978 -76.919144 
-59.290482 110.879288 -13.504613 
59.777164 -111.038994 6.349926 
95.530762 80.678375 -7.866179 
59.761162 -81.157394 -76.214233 
14.665999 -109.851707 -61.414593 
-1.303506 1.614770 126.763382 
-91.920593 64.662941 -57.109844 
31.117214 41.662598 115.244041 
-1.312589 -54.326241 -115.534096 
