-68.118965 -84.039032 -66.326233 
-54.787327 -90.328011 -69.726791 
-11.139789 79.181976 96.527161 
6.149737 -88.345924 89.406059 
118.450150 36.577778 21.551052 
-29.086189 -77.058258 95.463516 
101.386459 -7.519410 72.992783 
3.761791 108.966675 62.169277 
22.386652 61.309025 -108.237946 
42.597900 102.026337 59.792980 
-93.501068 -32.408714 -79.277931 
-108.227127 64.260368 -16.899834 
80.870407 36.955978 -88.855766 
-40.186363 51.285721 -108.554466 
-91.365990 -23.756065 83.844223 
-33.304012 -108.305481 55.804688 
-116.386993 -50.064724 -0.714708 
106.503685 66.276413 -5.328309 
-107.408112 -60.840233 29.355091 
54.824371 -111.011902 24.987541 
-24.174534 107.097435 62.024433 
-79.646721 -95.527054 23.047745 
-36.343811 115.453934 -35.603340 
67.543922 37.778214 -99.734985 
78.133652 92.110458 31.762943 
-115.567131 5.127831 -51.853519 
-45.972984 108.079178 45.630310 
-107.644249 3.133461 -67.091919 
-100.411545 -46.710464 61.218613 
-67.074753 -106.913437 -16.400724 
33.635391 14.142902 120.594376 
-90.461990 -63.046200 -63.301208 
7.201344 25.852695 123.602173 
52.225685 -57.697502 -99.563751 
61.625938 84.781746 -69.595123 
19.439419 113.577576 -50.455914 
-99.832672 -36.115547 68.353149 
39.919537 53.399433 106.284561 
97.651604 1.648882 -78.894768 
45.653465 -117.710884 8.428407 
-23.338213 54.561409 111.268753 
14.238283 46.269455 116.792198 
97.542625 -24.777935 74.290359 
-71.721832 40.380516 95.096710 
2.475505 -113.266647 55.440681 
44.539848 -104.440369 55.520744 
-16.307747 87.536568 88.399956 
105.654373 65.922668 16.992685 
2.674923 63.342182 -109.347549 
-40.311779 118.740234 11.877298 
32.626972 108.886047 -53.143265 
-84.393394 88.908630 -27.993427 
61.465919 -46.858749 -100.098846 
39.047920 -119.824669 -5.625789 
-117.895119 -46.117447 14.131671 
-4.873270 102.700806 -72.248070 
119.422310 40.260414 8.653754 
-98.135925 -64.282013 46.826797 
-107.774605 54.666599 37.275120 
39.773964 -52.859589 -108.052994 
100.554672 -54.614201 51.862957 
-71.758209 100.426628 25.450874 
-65.887047 107.150795 6.307495 
77.073372 -98.381538 -19.663090 
28.118229 -36.215256 117.794724 
-123.157318 -13.277628 27.781986 
-5.082955 61.031700 -110.645218 
-41.678768 -99.861137 65.898209 
95.977371 -17.406956 78.290619 
28.478600 -119.161751 32.769318 
46.347839 -112.279182 -38.073750 
-4.667088 -6.706447 -126.398308 
-107.680862 45.997417 -46.965866 
86.390022 62.668785 65.436142 
-68.341934 -41.337055 97.750755 
-50.597092 -59.375038 99.051758 
-26.310757 35.873344 118.190399 
-89.649063 29.778553 -85.004082 
67.428879 45.726643 -95.672264 
100.125153 0.922830 74.648239 
-12.412497 -123.627563 -22.637505 
75.958771 100.144318 8.381283 
31.025078 -122.391975 -8.425793 
-42.216103 78.400269 88.524918 
-23.208893 72.405807 -101.398796 
-29.484325 69.850708 100.828133 
-87.250793 -81.674332 -42.989891 
88.105515 80.804054 38.988708 
23.248232 42.174332 116.887161 
71.439552 -5.631221 -104.558533 
63.643013 2.901363 108.304253 
86.441559 2.087990 90.213249 
-121.225784 30.352985 -21.196165 
-89.809708 47.595421 -75.090591 
-53.528381 65.411438 92.679977 
-111.955528 44.858429 -38.464867 
88.052078 -74.792343 -50.072113 
60.568394 100.120598 -44.981380 
13.439923 124.395569 -6.773874 
-90.363091 82.417252 -30.783451 
11.851923 -83.675972 93.156242 
27.979355 -107.093353 60.937943 
-56.452648 7.519364 -113.972130 
-117.778275 38.138618 -27.594648 
61.825348 -20.506985 -108.496712 
115.620659 48.554913 -7.583230 
-78.560822 -45.200954 87.922714 
-90.399956 21.688633 -85.985657 
79.684509 84.924225 -45.696995 
54.023281 -3.714427 -115.159744 
-59.696621 -110.890320 -17.220778 
28.731417 117.082535 37.409065 
94.146843 -7.615500 82.494774 
37.922863 87.923103 81.493896 
-18.198860 -3.835860 124.944931 
-88.470695 -90.238281 9.066256 
53.255520 113.725143 -5.652159 
86.206306 -61.644371 67.456268 
0.972875 -73.212608 -104.033516 
-31.242105 95.272491 74.985985 
-54.374458 45.609928 -105.014748 
120.832657 0.761472 34.670143 
-88.904160 65.721115 60.244728 
124.768204 2.997732 -15.205360 
66.385147 89.801117 56.442360 
85.856750 36.703053 83.655968 
-52.031715 -114.617821 -19.785988 
-76.925583 -10.993854 -100.531647 
74.484726 -102.540787 1.014000 
14.452129 124.283096 3.863686 
69.330261 -102.600075 24.444149 
-91.125031 -25.642542 -84.675354 
77.183159 -95.711655 -27.456972 
67.334183 -58.821880 88.550827 
-21.789587 117.580658 40.649834 
-60.945217 -32.650669 105.623558 
-81.141884 -2.382125 96.181374 
-47.225742 62.315990 -99.484726 
-101.975563 11.590058 -74.069977 
-6.829412 80.020454 -97.231827 
-13.568392 -95.597641 81.263733 
-82.029587 95.340393 -9.967085 
-94.944435 66.787666 -48.826332 
-79.962082 97.163406 13.401337 
58.477482 93.159805 59.591454 
40.695713 116.597168 20.837830 
51.779778 107.878868 -40.733665 
-31.064093 -26.262131 -120.629311 
-63.699242 -24.575869 106.042618 
23.267265 120.120911 29.190393 
22.804863 -85.195496 -90.790291 
116.948280 45.147736 -14.954397 
-34.182152 47.272099 -112.732422 
125.000000 -6.312340 -13.748466 
-34.626259 -3.108977 121.559601 
34.087845 -77.508339 93.348801 
-57.943233 -78.962601 -81.127533 
69.407120 74.221092 72.599487 
99.901672 26.899132 -71.240051 
39.227509 -119.767197 3.882222 
-24.519661 -72.951866 -101.439438 
-16.546104 55.831741 -112.779770 
-111.859749 -29.017189 -51.597370 
-23.380793 32.826172 -120.534210 
-78.957306 6.992861 -99.250977 
-53.463314 -36.851593 -109.144135 
86.682518 -30.891048 85.612831 
54.799114 -49.660362 -103.221573 
-11.117891 -61.806107 -110.543457 
69.812805 -73.172081 -75.401596 
74.047531 18.290331 -100.350662 
-58.876122 -101.710175 46.163761 
-80.371803 14.941787 -96.539978 
-39.766357 106.677177 -53.852879 
-121.075500 -39.607384 -9.539150 
41.065918 63.882439 99.885963 
-120.685242 -32.287796 -21.321512 
-114.950531 -53.198837 7.736660 
32.484814 -92.290100 79.311798 
116.223602 13.794431 46.143925 
116.870407 -34.571388 29.995951 
-80.019150 57.560440 78.106659 
55.983536 53.890831 -99.242767 
-87.623260 41.536270 80.001038 
99.949760 -49.075920 58.060642 
85.384308 11.190295 90.659660 
63.474365 55.466782 -93.555740 
-98.962234 20.097992 74.803749 
101.161110 18.786850 -72.011276 
95.957230 36.168797 -72.304001 
108.031670 43.520458 -46.477940 
115.122620 49.641552 2.440928 
42.482048 17.250008 117.568863 
68.084648 -63.577362 -86.388397 
29.352390 -79.527832 -93.947243 
-60.533287 74.420364 -82.508408 
-68.559517 -54.157024 90.933678 
34.876900 12.989389 -121.348785 
30.729233 -43.154636 115.169724 
-7.862183 53.816750 -114.867760 
-82.156265 64.635750 69.867447 
-5.681395 -114.553879 51.986393 
-58.015900 80.534103 -78.068024 
-12.808839 119.724327 35.575783 
103.321449 -71.453094 11.307207 
-125.581100 15.178283 -9.188520 
-51.213684 10.657756 115.793442 
51.478924 64.391914 93.890495 
-40.178780 92.327393 75.148491 
-113.784874 -31.601608 44.873463 
-22.556557 65.044228 105.275009 
48.432323 -24.801529 113.853470 
81.970596 75.723656 -57.888428 
-22.943949 -83.089439 91.904579 
73.459106 94.152412 38.250198 
-12.064281 124.723351 12.149492 
46.240776 -117.522949 -10.919884 
-84.007278 -28.621750 89.487457 
-40.447037 115.276718 29.399572 
87.717346 -82.851822 -37.865849 
-21.659828 14.455622 -125.015182 
114.612106 25.800173 43.432423 
105.402412 53.440556 41.963463 
54.669033 -86.422493 72.794815 
95.537743 -56.209625 60.444523 
118.114685 -44.113411 -0.718564 
-34.433064 31.358011 -118.579315 
-53.115547 27.595663 110.861687 
4.493701 102.299484 -72.711914 
-16.431204 -78.289185 -98.964134 
-65.065125 107.615364 -3.583972 
108.121605 53.737717 -34.705482 
18.961277 123.782082 -12.738173 
64.529144 63.738647 -87.729156 
-16.105146 108.002182 -63.180977 
-8.646034 -53.260757 -115.778290 
-52.856342 58.972416 97.400612 
79.036972 -65.305275 -73.328880 
119.453613 -33.415524 20.381552 
108.948997 25.919416 -56.860722 
36.816013 119.538879 12.295706 
-87.675537 38.748924 -82.535149 
-118.224930 -13.691538 -45.596191 
114.829666 24.065376 -44.980965 
-107.741577 40.961426 50.392609 
-108.374130 12.945247 -65.510780 
-17.021875 -125.108681 8.864935 
74.220032 55.646049 84.630142 
106.239594 -21.075920 -64.890427 
-27.222881 77.345932 -95.850304 
30.178350 113.342209 45.030865 
-86.052429 -79.269394 47.921059 
64.513756 107.209213 -14.647095 
51.306923 -99.205490 -59.219093 
-92.964478 84.981010 -9.043123 
-75.474342 -9.631409 101.225380 
-43.769676 -74.035660 -93.053223 
104.907417 44.322990 51.079964 
78.160255 97.332512 15.423898 
114.923691 -15.060459 -49.783211 
-69.612663 104.731514 14.329607 
100.041199 -17.569275 -73.818214 
-56.141781 16.189491 112.080521 
-62.066040 -69.806610 85.290771 
-116.403488 -22.705444 -44.964691 
-61.739120 -14.991499 108.858818 
-123.512756 -10.576550 -26.933678 
-49.152954 -106.945885 -48.391090 
-113.033997 -57.380356 1.274300 
93.125366 80.973465 -22.044491 
-98.672012 56.356644 55.116585 
53.854206 91.729675 -66.813286 
21.919836 107.004433 63.003506 
-111.560471 -57.772987 -19.275789 
90.815346 -46.735886 -73.643410 
118.975166 -19.172081 36.735107 
5.518615 125.275711 -6.602292 
1.094835 16.783396 -125.686508 
-16.943073 -69.921997 -105.136124 
-69.815926 89.201767 53.795235 
-4.196694 -109.158646 -64.666992 
113.525497 49.732571 18.846853 
114.672821 37.473091 35.655746 
96.430428 79.497574 -5.007151 
-20.262415 119.628616 33.013805 
112.567413 20.599138 50.463615 
-69.141655 -106.047028 13.946083 
41.227619 -9.709837 -119.822006 
-55.236176 30.250269 -110.074677 
46.012222 -66.043678 -97.679680 
9.784695 -108.833351 63.387981 
-3.945738 101.572098 73.024155 
-99.330307 71.263145 -29.682968 
-25.644520 122.096550 -19.386929 
-81.291527 -78.011055 57.275139 
23.389612 123.290039 -5.578967 
50.371643 -106.824364 45.096603 
-100.662407 -73.454262 20.616692 
52.595310 86.556671 73.000519 
-62.447594 -55.770294 -95.387238 
-82.368889 89.667847 29.257217 
-50.661575 -83.071236 -81.440948 
41.052101 -20.902546 -118.599022 
32.422890 -56.024712 108.058372 
83.484238 91.065002 19.508568 
66.150848 -107.436478 0.996975 
12.490553 -44.805260 117.673668 
-12.378878 100.372505 73.620132 
42.657822 79.020096 -88.361259 
23.813248 -121.539314 26.489422 
-117.159721 12.790710 -47.794678 
-105.978561 -51.253803 45.662666 
-121.623299 -36.758850 8.892276 
112.273087 33.490257 -45.626087 
-22.523167 82.093208 92.092522 
-95.800171 71.699127 39.770687 
87.617355 80.275070 -41.613068 
57.265827 48.005089 100.927307 
-55.787716 -59.695133 -96.837486 
111.433784 57.689926 -5.726490 
-108.769081 -27.951609 -58.881512 
-70.429649 10.920771 104.185310 
70.792328 63.919899 82.274666 
120.688637 -24.117844 -25.845631 
-104.657295 66.352814 -23.949982 
-117.128464 47.446991 -7.563274 
-18.649292 102.421188 -70.839706 
-52.890568 108.345566 -39.437485 
90.831474 -45.933983 72.949013 
59.425591 10.960533 110.092758 
48.779057 -108.387085 -45.068581 
8.006789 -9.379889 125.590271 
-120.184502 25.947964 26.542427 
-92.900223 57.901608 63.257141 
-106.075104 -63.969627 -28.157196 
-53.769238 95.256775 62.012726 
66.235794 94.396896 48.312347 
18.591703 -97.772491 -78.488861 
124.999992 11.725411 -7.668891 
91.944077 73.157082 -43.963371 
87.301422 42.720638 78.600632 
-77.450058 97.044250 20.793497 
17.268173 -81.843323 -95.387436 
115.989517 -39.036438 -30.735649 
70.744484 77.142075 -69.167465 
-109.305626 -28.118778 56.468243 
42.753334 7.786466 118.402931 
117.978958 -29.797131 -31.934099 
-79.779053 -53.496525 82.169724 
52.440804 54.565540 99.853592 
13.895236 -74.908173 -102.248924 
20.341305 -120.102371 35.265423 
2.651276 -117.231186 -47.696999 
-60.120758 52.599262 97.179100 
125.000000 -9.170464 -5.459639 
122.121002 23.239550 17.556053 
28.217579 -98.736992 72.588394 
-92.633499 17.370728 83.606049 
23.346558 -93.042053 -83.137154 
42.982830 -91.569885 74.980042 
-33.754333 -49.758003 -112.145088 
91.665451 56.235371 64.849686 
-114.877388 49.958115 17.486883 
-99.249146 45.422424 -64.536430 
-75.120506 79.845444 -62.698250 
62.809155 67.823334 84.939148 
-68.951660 97.032227 -42.332718 
38.762665 80.867920 87.661346 
59.637074 22.801514 107.987747 
114.916107 -51.092140 -10.498599 
15.547957 -39.368645 -120.113312 
-55.501247 -101.413284 -51.328415 
-105.178741 -69.318291 15.745077 
-123.391876 -2.706667 -27.562216 
21.708216 14.577547 123.775398 
15.482639 99.947823 73.484138 
-11.622093 -75.704788 100.711937 
67.755646 -105.844711 -16.451860 
-31.348339 -120.327354 23.838085 
-4.553684 -103.421288 -72.655838 
21.803192 78.625610 -96.094276 
-27.317589 -93.690887 -81.034172 
-13.592157 62.675819 108.294022 
5.936364 -52.340389 -116.431465 
122.146927 -28.835974 8.576523 
93.531761 83.273727 -14.079653 
39.141068 -103.023491 -63.041428 
-71.456818 47.427906 91.510231 
-43.535065 -93.652756 72.834244 
-52.356323 -95.071327 64.828293 
22.124071 -108.552284 -62.799545 
-17.549881 -20.728029 123.936478 
92.750862 -52.062576 67.333458 
-77.013336 28.388510 -96.014702 
-10.957991 121.388290 -30.531954 
30.666489 -102.153786 -68.077080 
-66.320770 101.397141 -33.746140 
-0.035082 -126.996101 8.000238 
79.419662 -87.159195 43.029980 
36.968063 71.283020 -97.148041 
-95.616470 27.478827 77.042603 
80.102852 16.799410 94.490311 
-50.978210 -75.689377 87.329010 
82.442261 -92.775558 -21.431765 
-13.239552 111.308922 55.715275 
14.075386 121.001129 29.636639 
47.302036 -63.496254 97.755898 
104.238960 -70.248871 -11.679443 
-18.257368 119.165260 -37.634666 
-91.255219 78.114693 -40.282219 
-23.669809 -29.094521 120.625298 
34.823627 26.069893 118.256821 
20.833771 84.860634 -90.827576 
66.679527 -29.988235 102.419884 
33.264477 118.676239 22.273565 
-109.933670 58.581615 -22.196171 
-50.658096 90.016800 -71.951454 
103.657661 -63.579247 33.290428 
-0.456170 125.366615 -16.482824 
20.677225 -39.097767 118.404594 
-102.800552 55.046074 -48.965317 
-50.759342 112.217873 27.662523 
-4.390990 97.609108 -79.447525 
108.174355 52.897285 34.520287 
-85.066261 -28.510303 -89.649628 
-46.431458 54.231079 -104.620529 
-78.526306 78.424484 58.972122 
55.859692 -63.764450 92.516235 
-21.830948 3.830053 124.533859 
116.701340 28.962446 35.901154 
-2.609983 48.142014 -117.846115 
21.842564 -123.350945 -19.737146 
-77.300720 -100.820374 -4.058766 
77.012177 71.051460 68.826248 
-21.745144 43.344578 117.008881 
13.927666 106.046310 65.278259 
-96.602570 -17.966387 -79.627266 
25.511560 -113.930511 -49.850761 
-61.852772 -13.275364 -110.199883 
-125.850014 -4.090962 13.779946 
-101.657150 -66.709602 -36.631287 
-56.136520 108.048721 -32.299641 
-96.614365 -81.275955 -14.822670 
53.474003 108.290787 34.580299 
-33.076622 120.314713 -17.414890 
-14.401095 -39.185089 119.349953 
-33.928566 102.782990 63.973679 
-43.569218 35.941444 113.014008 
-94.142014 -79.673370 -28.448248 
106.442032 37.233639 -55.279472 
6.295145 122.682175 24.945559 
39.548630 106.718964 52.230503 
74.808434 -30.540230 95.648773 
-16.473209 -54.787354 -113.848343 
106.149887 -1.067649 -67.740784 
78.662071 24.195539 -95.068253 
-66.813278 55.935944 90.610291 
45.244106 -56.753986 -104.002014 
69.932434 99.146973 -32.678970 
-83.701828 -21.022141 -92.212250 
-44.813999 -13.259548 117.793716 
-42.799603 -118.194550 16.455505 
-92.183922 -74.275055 44.084064 
-39.137772 -57.277782 105.481522 
-93.587502 51.940056 -68.084404 
-91.140366 -38.024376 78.223534 
-76.197838 -94.954636 -34.492859 
75.199989 -85.807205 51.594578 
-42.688560 -48.447914 -109.228348 
-79.507416 91.503265 -33.589653 
-85.019623 -89.169937 27.478867 
10.118914 -19.872257 124.489334 
104.002647 61.356251 35.302990 
-74.348099 67.620132 75.913406 
-87.812889 56.530399 -70.930542 
-98.855080 -63.809444 -47.286709 
-66.016968 102.273132 31.389406 
-73.737946 61.362839 -83.105713 
-98.314377 -27.601635 73.586792 
-60.237362 -63.273842 90.702530 
78.346786 -42.030785 -89.408226 
-74.070053 88.339478 -49.992908 
-18.371929 78.179047 -97.715355 
101.567833 -64.549995 -39.144516 
83.215607 93.269424 7.800673 
-56.129921 -113.665703 2.266035 
108.206993 -31.398802 -56.045219 
113.436684 -8.807449 -54.319958 
-56.965313 -39.790680 105.230469 
84.287109 -93.254318 -13.261599 
-89.992523 -16.407452 -87.429100 
-56.544754 102.729019 44.900398 
-33.075447 -32.791962 117.758698 
112.526764 55.305279 -13.487368 
75.902878 28.213247 95.171173 
112.804611 54.699028 10.857924 
39.869049 -118.110916 -20.688967 
-98.420715 -76.515640 -21.539093 
-83.636925 -87.468185 36.651497 
-93.509422 -66.464729 -53.347267 
17.989838 -68.600037 -105.568619 
108.882042 63.154827 8.896921 
0.415261 -83.142075 94.632797 
107.502487 -47.092567 44.259987 
47.299446 -117.184174 -3.034847 
106.926880 -54.671532 -39.276741 
-121.663406 35.550343 -5.067972 
-78.159515 49.782459 -86.453232 
58.562893 96.905457 52.543167 
-5.613611 -120.611916 -39.776047 
93.995575 39.662170 71.982346 
1.781118 79.700249 -97.619469 
116.986244 5.252776 45.575447 
68.518738 -99.532715 36.858620 
62.219498 -107.112106 23.799789 
-87.249214 89.388794 -17.360138 
78.331573 -97.453133 17.269333 
-117.763969 31.255802 32.242748 
94.546761 -82.969879 -8.290984 
-97.765388 6.343715 -80.057930 
-111.655884 -52.392723 26.983936 
-26.694366 -1.837341 -125.022644 
117.295906 0.580098 -45.899857 
34.888100 4.010656 121.096802 
92.927643 1.277217 84.068542 
35.801113 28.666920 -118.517609 
-108.774780 -65.608109 -2.285946 
46.094334 -16.041338 116.824287 
8.073922 -52.676132 115.116196 
120.645340 -17.882992 -32.066338 
-61.217503 -45.533310 100.681778 
6.384404 87.964737 -89.767136 
-19.672848 115.775436 -45.830750 
-110.419777 -4.923508 -63.084133 
-4.302262 -88.425858 -90.529526 
-79.272774 -98.952110 -12.005980 
-35.054295 -93.377357 -78.220505 
10.057298 -115.524796 -49.972843 
6.215033 -63.647026 108.658302 
84.117233 -20.534691 -91.286865 
72.368286 -87.641006 -53.884315 
-101.180023 -55.050472 52.211380 
119.173088 37.800507 -18.306812 
-35.490021 -71.780609 97.646896 
4.990877 107.005661 -66.062752 
-60.868725 90.214111 -64.319405 
58.795147 96.326973 -54.087509 
-22.447861 -100.517044 73.083389 
-35.302498 89.490585 -81.941055 
2.308892 -124.654182 22.010786 
2.456966 -22.055988 124.494736 
26.615347 113.862808 -47.197491 
36.400631 114.044052 39.320377 
-63.089199 -90.110619 63.043278 
26.472950 -118.513855 -39.976410 
49.459469 -110.895775 38.340618 
82.687607 79.403000 -50.527351 
-16.079073 -10.843387 -125.554527 
75.799049 66.286713 -75.601395 
-41.784313 12.525672 118.743484 
37.959976 -44.813622 -112.492996 
-64.830002 -103.453102 -34.318871 
-40.464230 102.275490 -62.329079 
69.798233 -0.380540 104.557602 
50.269253 -41.404663 107.539162 
10.968124 -63.971764 -109.178223 
17.646114 -17.136032 124.179825 
-62.826969 72.229797 81.692337 
70.494377 -56.011280 -88.768028 
40.692478 -116.590942 26.053074 
-108.827362 63.286835 16.433842 
-39.129730 -105.791687 -57.945850 
-124.643143 20.055645 -1.914269 
-55.128098 110.477585 -24.778175 
-22.772640 -117.347580 -44.119881 
-12.595533 -120.933029 35.091682 
71.817406 -24.424622 100.304855 
9.400591 78.027267 -98.626411 
-121.477676 -5.925841 36.516045 
98.404648 -54.928226 -57.002312 
6.840740 120.365807 34.801235 
22.893801 82.472816 91.284912 
-34.852657 78.343994 -92.862228 
4.406154 -98.680237 -79.198326 
-103.232025 59.750084 42.490845 
-121.725388 -14.342907 -34.801567 
-64.450951 -37.319992 -103.467995 
13.798454 117.127472 -43.783695 
56.487789 110.563766 -19.659515 
92.913925 -78.684929 31.068008 
-84.024002 -55.344700 -77.104012 
-101.295914 -75.424118 10.757222 
98.516068 74.895523 -19.241192 
-92.135338 11.509563 -86.264404 
-61.189369 7.119779 110.248444 
-57.246460 78.339874 80.268394 
65.355751 -79.846893 71.379341 
-25.910891 -124.121010 -13.133043 
47.805595 43.075302 -108.726440 
75.443100 92.836609 -37.575455 
84.002625 61.925461 -69.896477 
121.991493 28.644253 -10.088052 
1.348752 -47.797112 117.301765 
89.053001 -28.810766 -85.171516 
-97.445244 17.806238 -78.079979 
38.667198 -65.254639 100.777420 
119.760010 6.286918 -40.523621 
120.660187 -36.567032 -1.536557 
18.112064 -112.660934 -54.711945 
-49.058731 -113.971710 -27.804657 
23.513783 -33.683113 -120.370941 
-59.155720 97.705162 -52.509422 
-53.168076 -67.738747 -92.987900 
-16.228865 106.041901 65.203117 
112.889648 -10.386848 54.513496 
94.479523 25.587151 -78.790878 
57.161106 78.928543 -79.900261 
58.000320 58.033466 94.244171 
19.177387 99.323189 -74.924225 
63.421333 -72.922073 -81.584251 
-69.654274 39.891655 -97.992203 
101.070038 60.312782 43.791786 
91.959900 -21.314075 -83.374878 
-74.300468 32.749149 95.759521 
-51.829895 -54.948467 -102.269699 
-30.025789 84.357864 -88.925186 
-71.835701 100.709122 -25.026787 
69.131981 -49.555412 -93.141418 
106.418457 8.069656 -67.388275 
-119.907455 -42.383743 -1.810049 
-3.877103 -41.732727 119.116081 
-104.939804 -66.814575 23.405247 
-84.208344 46.140728 -82.758453 
-119.711578 1.834592 -42.811119 
115.847801 15.878402 -46.991707 
41.231613 106.135498 -53.119781 
20.600716 -124.622993 -0.010378 
-92.689323 77.634651 35.717476 
-83.507103 -94.940636 -5.868333 
88.697716 -36.674324 -81.730446 
33.571274 77.506607 92.674469 
-115.393951 35.816563 -39.558952 
-81.546982 44.795074 85.202812 
121.668427 30.324160 -2.417892 
-62.190575 -4.343038 109.797043 
8.934091 -122.137589 -31.973274 
-6.591468 125.354828 -8.926338 
-43.895634 112.285065 37.851696 
95.552689 -81.241646 14.146660 
-31.679844 -105.497467 -63.463238 
74.682343 83.050423 55.484711 
75.553909 -34.418243 -94.539246 
12.369699 33.582474 120.852699 
56.803097 89.431984 66.483292 
69.507484 83.005051 -64.142593 
61.593128 -110.012581 -10.927675 
-126.000000 -6.083493 3.184057 
-77.369278 -90.643585 -42.768723 
55.392933 71.474220 86.790154 
-46.824505 -17.819954 -117.647285 
-53.578651 -99.982681 55.375614 
29.894573 -107.432945 -60.095493 
-115.939819 41.212360 28.511230 
-79.756592 -83.873688 49.665077 
74.273590 77.195648 64.853638 
-28.610415 24.111147 -121.486603 
114.169548 -19.435337 48.336998 
97.736778 -75.785065 21.426571 
38.157410 -119.272705 17.090248 
118.057770 -3.482008 43.237595 
65.779877 -13.171843 -107.126816 
-108.929863 64.404556 7.973125 
-61.721756 -104.153824 37.290516 
103.464256 67.116310 -22.780884 
-55.677628 111.053238 20.922869 
-59.689102 -107.896507 26.935791 
47.313560 -7.934103 117.039246 
-97.037399 12.003979 79.341339 
10.146252 62.501472 108.486923 
-109.661064 -61.774376 18.388580 
30.973129 -63.561409 -105.509491 
-14.079347 18.141109 -125.258354 
-50.375378 -81.968071 82.011971 
-59.015999 111.034439 0.497931 
-72.979935 -92.657097 45.037563 
64.442863 59.809963 89.337486 
2.256048 -126.739685 -13.789535 
32.811287 -92.518097 -79.891273 
-85.300125 7.678237 -93.241989 
116.858971 29.618853 -34.604000 
-46.720596 46.833717 -107.885452 
-12.688828 53.622444 113.624504 
76.937057 31.896051 -94.030098 
-42.180897 50.401024 107.101799 
35.207069 47.596207 110.859802 
-44.680031 -22.366768 116.621552 
-71.138000 -89.825745 52.520241 
-68.671295 -15.135062 104.707626 
41.247971 98.031830 66.753838 
-28.062721 114.239105 45.146645 
-89.021126 -39.143902 -81.138535 
-39.939907 -119.859230 -1.255281 
0.861616 -109.344299 63.808319 
-97.945084 -50.773743 -63.725819 
-85.205528 -70.604179 61.717106 
-117.586304 -4.132031 -47.448074 
13.743594 105.604904 -66.958267 
46.743111 -105.437469 -52.769226 
76.704765 -60.928642 78.872704 
-21.254206 -49.052727 -116.493034 
60.913105 -104.648285 -35.735912 
96.011642 -68.478882 -44.229664 
109.793022 -34.876564 49.853874 
-10.483147 119.458969 -39.056976 
-76.109848 -21.255844 -98.935730 
101.508759 41.193676 60.883743 
82.029198 -80.997833 49.503658 
42.543358 38.083397 -113.223473 
39.855537 -108.825165 49.527767 
67.231911 105.825447 6.967634 
60.172726 -37.502460 104.079475 
-118.039124 45.460106 0.084790 
-65.380920 -105.949059 -24.452652 
-122.037949 15.223018 30.011765 
-53.787895 96.588066 -60.564674 
15.374909 109.945450 -58.950268 
-71.046669 -90.006104 -53.282692 
-34.195240 -91.524193 80.040413 
80.239021 -11.542367 -96.553871 
-6.994054 87.616089 89.177650 
58.474503 43.206005 -103.431641 
-32.617313 56.481960 -108.456245 
-44.805473 27.865967 115.141937 
-66.415253 36.834557 100.873787 
-50.030945 -66.028412 94.962143 
22.696783 105.350990 -65.878670 
98.297455 56.510674 -54.795189 
-58.545773 107.359085 29.714869 
86.854874 86.641998 -23.798595 
68.218628 52.556427 90.756187 
7.534214 110.976974 -58.204910 
-61.250092 -69.136627 -87.259064 
-59.249245 51.991558 -99.122650 
94.361801 -64.499649 -52.468361 
-82.271469 -96.111229 4.245137 
-117.180168 -43.441437 21.429655 
118.905365 20.387783 -35.442856 
41.742855 71.999763 93.210098 
-87.193916 71.941772 55.029736 
40.888359 -112.837738 40.732273 
-26.298893 -12.092637 -124.388809 
-52.416298 -75.616196 -87.762711 
34.579803 120.254456 -1.876403 
-6.427454 -118.099739 44.141239 
98.114471 25.786598 72.740028 
45.254032 -45.199425 -109.287125 
91.100616 -15.799479 84.658951 
72.011261 -42.267403 -94.678802 
-24.559414 58.013134 -110.078003 
-49.260849 115.634430 -15.116051 
-55.180710 -89.273346 69.780624 
59.110561 -108.589973 -24.118715 
-86.424881 -48.756042 78.157082 
17.083466 -115.067802 48.903996 
-18.943478 -2.981982 -125.586143 
89.451202 44.903206 -75.670349 
111.455811 -44.423538 38.058876 
14.620863 92.190758 -85.222443 
13.471686 -108.996819 -63.516689 
70.736923 56.656189 -87.649338 
69.627220 -87.625389 56.886158 
15.899869 122.519722 -20.944216 
-105.722176 -5.568382 -69.614647 
124.679153 -4.178372 14.668409 
-51.813950 84.909805 76.170998 
60.175034 109.814110 -8.210595 
8.235227 41.281322 118.790573 
-43.700760 -9.621449 -119.385818 
43.058479 -71.014435 94.263824 
25.700565 123.033279 2.507391 
-109.639488 -10.543619 63.473164 
58.309299 110.868652 0.773435 
23.328264 29.331659 120.192017 
-61.859489 65.183853 87.912224 
48.814060 49.983299 -105.122482 
-118.744095 -35.409676 26.471790 
87.512886 -10.175937 89.024422 
-31.760544 118.077751 29.611065 
-70.454903 -98.563240 -39.214756 
-111.654434 -46.858040 36.914192 
-24.906036 95.737083 -78.038757 
-50.840744 37.221077 -109.755463 
-35.188061 -111.293152 48.553688 
-37.112286 43.590496 112.289764 
-70.899155 -32.164478 -100.164398 
43.414673 13.866583 -118.777412 
-88.178154 12.916810 88.489731 
75.808372 -17.615959 98.111664 
97.698578 9.563400 77.833115 
-96.897461 80.197083 2.799988 
120.864288 8.900985 34.505699 
-56.317101 88.422638 68.711884 
86.213669 -44.415474 -80.556610 
12.798670 53.943752 113.295219 
-19.162327 120.831421 -29.618757 
-113.096718 46.745205 -30.375217 
81.990601 72.101646 62.400543 
-82.692978 33.528057 -89.398560 
-114.191132 53.855705 8.850043 
-113.241432 -51.303810 -24.512794 
78.677689 -98.568504 8.512428 
-57.487595 59.113609 -95.398102 
-42.948044 -110.162323 45.558846 
16.123039 -11.093136 -125.495819 
74.472000 97.428802 -26.199265 
87.973557 29.319002 -85.742416 
-110.714996 57.098274 21.115896 
-22.811890 -72.611427 101.219162 
35.467789 102.963608 -63.484810 
-99.223389 25.243294 -73.739685 
78.322830 -40.616600 89.001587 
-105.524727 -34.445560 61.531174 
-68.769272 -84.761086 63.973045 
-25.437893 -108.848030 59.740211 
-12.382613 42.182838 118.257675 
-53.227570 -52.562756 101.985748 
-31.504639 109.025917 53.278412 
40.144306 -10.215568 119.153564 
-60.125809 23.514214 -109.105682 
-123.729149 -18.779324 -19.576153 
28.909254 122.069038 10.990333 
61.362923 -96.784653 -52.386898 
-97.669289 -80.184059 -4.410999 
-37.328468 21.313322 118.693306 
114.160004 43.572464 27.074890 
-107.670944 16.453680 64.438255 
-87.175629 -7.308250 90.465202 
0.722744 -122.116898 -34.909580 
-49.543472 68.398438 -93.898605 
-40.742416 105.583702 54.243446 
19.753185 -83.059105 92.619339 
106.326958 -15.926987 65.350319 
-29.549257 122.184235 2.049379 
-27.324593 -40.734959 -117.979866 
-65.509453 65.447945 -86.540359 
-29.406565 98.633430 -72.353111 
27.522257 20.847204 121.125626 
109.807884 -62.237350 3.659301 
-5.905337 -105.895836 67.940979 
20.463346 -99.922806 74.275078 
19.663044 -55.045311 -113.150192 
99.916245 -31.546566 69.126595 
116.045944 -48.627041 6.874100 
-106.990158 -45.268684 -50.026020 
43.500275 -84.739204 -83.832375 
-124.855392 10.926047 -19.951984 
104.650444 -43.156403 -54.531166 
13.818611 -102.422127 -72.692245 
-8.761731 -81.827980 95.361977 
78.369270 -59.442608 -78.848541 
71.480255 -9.927197 103.240486 
-82.425743 74.873047 -60.179138 
-100.816376 66.498260 36.525284 
-75.167786 16.142094 99.735397 
120.204803 21.953138 -27.131226 
-114.171280 -53.033058 16.214874 
59.152313 -86.789497 -70.178238 
32.194412 98.490128 -70.931564 
-69.478958 22.890366 -103.898636 
81.164215 89.269371 -32.252430 
-51.643650 -115.419144 16.203377 
-4.685609 15.644677 125.101318 
50.871666 100.541306 -55.211716 
8.961499 124.563904 -15.426846 
-28.095617 -123.649406 8.380131 
-5.404223 123.433731 21.918407 
1.090929 -126.874123 -0.684721 
69.503288 -95.143555 -45.531887 
-19.143461 73.184212 100.926941 
79.536972 6.141733 -97.754448 
-83.527130 32.348869 88.183868 
-27.632166 118.484756 -34.984550 
-43.690434 -36.823235 112.937668 
98.791420 -77.398766 6.052810 
96.600098 59.991760 52.166370 
112.143929 34.351955 44.407387 
-122.256248 32.467514 -12.920027 
-80.148544 -0.947726 -98.122437 
-1.813522 -49.165489 -117.854279 
87.360321 49.764366 74.686302 
86.826309 9.438411 -90.597618 
75.753334 0.063498 -101.338943 
51.444820 -88.487717 -73.709946 
-25.012220 90.260353 -85.137543 
74.132629 -72.149437 71.388123 
69.329086 -101.911034 -27.353123 
-26.699327 50.165428 -113.734207 
-105.787354 41.976791 -54.410938 
48.715965 -115.488770 -19.726120 
-101.629990 -19.335251 71.554535 
73.340576 99.000977 23.877213 
101.601044 9.229196 -73.711121 
-21.943359 123.583450 -0.705694 
28.596426 122.169144 -13.365867 
20.060610 -46.587105 -117.513565 
55.936020 -54.115715 98.773796 
-52.750408 100.937492 52.488644 
-94.772499 41.242252 -72.411804 
-101.767906 73.804626 7.516877 
81.311813 82.312149 46.741405 
47.067005 -99.549240 62.258205 
-108.333130 -36.140991 54.282494 
-61.963482 90.942749 60.865063 
-79.004807 89.939789 38.650127 
112.959663 -22.954021 -49.931744 
-88.174713 -55.525787 71.153038 
-19.377434 43.341324 -118.345825 
-15.911891 -119.587578 -40.411114 
-13.421019 3.395694 125.464844 
-106.704697 -20.778702 -65.716187 
105.554688 -1.155510 67.521980 
70.698257 -82.919479 -64.181473 
-110.951477 -45.564987 -41.570000 
31.170431 -109.756989 53.372406 
-39.051353 15.402580 -120.126511 
5.346849 -124.328178 -23.724339 
123.040810 -0.861459 23.187775 
29.909470 109.736130 52.454483 
12.155636 -100.578262 74.597038 
86.909943 -90.769531 -3.651968 
-126.000000 1.115027 7.744030 
-69.502823 -14.615109 -105.339462 
-51.420677 115.185379 0.526253 
-21.974827 -63.405190 107.018539 
2.903161 -106.203056 -68.887886 
-7.025832 -126.219360 -2.851277 
-78.749817 63.353874 -75.609505 
23.109653 72.333908 100.196640 
25.888323 -71.416168 -102.074379 
15.397406 -104.791817 68.331779 
-77.479332 90.492165 -41.204479 
51.120464 -93.018646 67.425598 
-63.646740 -80.002258 -74.732956 
-24.291821 -100.210243 -73.712166 
20.289000 -48.584225 115.767021 
77.428932 37.801903 90.362953 
-100.631165 -11.031746 -76.244637 
-52.914753 -45.211292 -106.308846 
19.929873 89.107979 86.285759 
77.777985 -79.366150 58.692627 
-92.953201 36.091534 76.358658 
-22.599886 -90.164246 -86.789719 
32.389519 56.118034 107.398544 
-46.069286 -111.447205 -41.726059 
59.718372 -79.701340 -77.797852 
88.043488 -89.695633 5.724655 
3.690612 -43.267456 -119.623833 
-125.498138 11.637170 15.609689 
-59.359642 102.417313 -43.376289 
46.841263 83.053818 81.299057 
87.595741 -87.237419 21.912479 
-101.884491 48.055393 56.163628 
-69.257004 75.508286 72.199371 
38.219112 -42.721672 112.291641 
74.373405 20.423483 98.725510 
-99.851410 -9.275898 76.320023 
-96.391510 80.861153 11.658495 
88.931885 -38.021187 79.623138 
115.191109 44.527679 -23.104563 
86.895653 76.365105 47.723625 
33.805138 102.167160 64.421181 
-71.930794 59.086624 85.286240 
20.926897 -94.508003 81.208122 
105.157913 -69.042755 1.636935 
-15.796501 -124.223495 18.195520 
121.138634 -11.401573 33.079117 
-81.902306 17.413818 93.280632 
-114.643311 -9.654473 -53.869125 
0.347869 -93.270737 -86.535469 
-64.395676 -29.679203 -105.322144 
80.611671 64.019676 70.709564 
-97.009438 -17.095146 78.114067 
63.035538 -2.321540 -109.674026 
-42.009159 79.496239 -88.695160 
-109.436462 27.581264 -56.949158 
68.982864 89.551582 -53.961426 
-44.065063 -81.980293 -86.617401 
-14.985332 -44.371971 -118.681442 
17.461739 110.878052 55.458672 
-54.442593 -16.659912 -114.195389 
119.597878 26.080093 27.054848 
-72.467133 91.683678 45.687382 
56.222351 -19.957554 110.847366 
81.027969 -92.925034 23.107430 
89.934616 -64.042381 60.143425 
-74.055511 -84.043358 57.906677 
97.241791 69.910690 -37.580009 
84.824203 -18.889477 89.701103 
-66.910530 -71.810852 -80.412994 
-112.159271 43.241001 39.263081 
45.104759 -33.825626 112.839081 
98.475128 71.737823 -28.242607 
-20.363842 -105.277420 67.061905 
-85.011139 50.410084 78.021690 
-3.066105 125.761604 -1.097002 
89.028046 -87.102089 -19.543533 
-123.807838 19.936831 -18.297153 
49.598217 106.634048 44.551426 
-105.456757 -59.590290 -40.322849 
38.684685 -29.468393 -117.800819 
-50.651131 -44.119522 106.806252 
112.928833 44.639629 -31.482632 
58.690922 -45.396835 101.824738 
-0.496679 121.401131 -33.686081 
53.938148 -30.616562 109.364578 
-91.013947 -55.395683 -69.262169 
-94.548264 -73.212433 -42.340973 
95.636963 17.161308 -79.533318 
10.270834 79.968788 95.972908 
-102.168655 -67.731842 30.800430 
-41.945694 -119.217377 -10.512218 
-12.116131 124.717361 4.189757 
9.534307 -120.331062 -39.593510 
-31.038008 62.525249 104.875793 
51.840225 -101.478317 53.228283 
101.075485 -18.030859 71.602753 
107.340874 9.180822 65.177612 
-111.842735 -1.758289 58.979496 
99.237900 -43.514736 63.845375 
37.054356 93.823227 -75.058563 
-95.445908 -48.246891 67.332443 
71.435577 -103.614464 16.383938 
-117.896614 -31.559208 33.580021 
20.413719 -76.222176 98.492828 
44.624485 69.804436 -94.683678 
-47.957787 24.932339 -115.425568 
112.893723 -46.366699 29.419048 
12.258850 96.980392 -79.089417 
94.636742 -51.984539 -66.080109 
-18.198195 86.654297 -90.130341 
24.918015 49.775093 -114.264114 
-44.023163 -72.981636 92.636345 
73.798264 -78.084274 65.390739 
-55.596054 -113.967445 -8.900331 
-33.773445 -103.649971 64.217194 
18.481888 61.739609 107.891533 
1.895544 34.862972 121.009422 
88.590591 88.033005 13.481776 
-101.464050 72.273438 -19.247574 
30.494860 85.721878 86.322235 
-121.275925 37.565193 2.945862 
-25.735760 -32.015968 -120.523682 
55.294239 -113.572830 1.062650 
-57.403404 -83.227142 75.468216 
-110.644974 5.783163 61.592789 
53.366718 -27.829117 -111.463928 
-64.177025 45.375435 -99.146866 
54.787907 18.054018 111.932838 
-34.667912 -118.702225 -27.899450 
-30.611803 -117.693878 -38.939419 
-8.394292 114.465012 49.785702 
5.859806 71.322647 -104.368713 
43.185852 101.871979 -60.660297 
-51.664639 103.480606 -50.191895 
106.275925 66.575356 -13.361691 
16.016695 -63.316963 107.871002 
46.687386 90.777962 -73.079643 
121.532913 17.088120 26.424416 
-50.095455 78.178917 -86.010376 
87.502472 70.629166 54.325901 
51.415321 -72.175293 89.407791 
-66.597633 -97.175476 -46.601791 
-49.381115 -88.350655 75.066391 
25.106878 -58.945049 108.798347 
51.551392 -38.101093 -108.973076 
-101.766548 71.458267 19.600153 
-32.175652 -57.768593 -108.543312 
39.741554 45.531082 -110.904526 
-19.443087 -122.199570 -26.197319 
72.539696 101.592407 -18.561338 
-80.141541 97.129066 3.342517 
-96.781731 55.865028 -60.123569 
-102.331573 -74.064804 -0.892242 
-76.000984 72.169662 69.482208 
2.502980 94.454727 -83.895058 
22.064339 55.241398 110.985565 
-49.881783 47.570484 105.186966 
11.377299 -74.225243 102.009903 
-46.698135 112.040306 -35.465183 
-64.303200 9.253605 -109.036919 
110.249695 -6.878887 -61.273396 
101.465935 32.699074 66.345863 
45.748768 116.680389 -4.991290 
-73.088135 72.612457 -72.792801 
30.701164 -23.248520 -121.035507 
108.995804 17.741291 59.638599 
-114.174484 11.104146 53.892052 
80.029121 -65.167381 71.550629 
-48.727089 19.424252 115.474037 
53.703068 -12.232120 113.637054 
59.934834 -99.526192 47.622295 
26.885717 38.673309 -118.161201 
84.120049 -54.587486 75.461647 
-98.777298 46.461700 63.560085 
29.213331 73.563812 -98.382492 
117.898247 -8.296919 -44.585648 
-5.922164 -82.299713 -95.897263 
14.521315 -91.183800 86.058868 
20.159451 118.733871 37.433372 
118.749931 -33.902210 -24.887684 
-95.669037 77.405296 -26.171711 
-83.561218 -45.505589 -84.433510 
-44.931404 -40.808170 -111.846054 
119.839523 -26.282446 24.396173 
-96.370255 -81.889038 6.339071 
-25.646755 -94.472321 79.713058 
15.890837 -1.557640 -125.777634 
-123.603165 -26.463551 8.527840 
105.668198 -61.098854 -32.942879 
-15.290395 13.356908 124.677246 
-13.573895 -105.514252 -68.627579 
24.066904 121.765427 -21.084034 
-104.244965 -60.206760 41.271095 
124.578972 10.923056 -16.189369 
-97.086693 -53.986839 61.646709 
24.974695 -89.368935 85.549500 
-32.466499 77.427231 93.363426 
-79.437332 -52.444973 -84.449387 
53.781662 29.296537 109.576195 
-70.193878 -29.409428 100.721222 
124.626587 4.323282 14.941699 
31.333700 -28.804153 118.847527 
71.477814 -97.880035 -36.356262 
39.189507 -61.997616 -103.698601 
-50.866413 84.282410 -78.695419 
-89.995117 25.020065 84.713646 
-68.252457 -106.813828 -8.429274 
101.969139 -68.425179 26.311932 
82.990532 -44.389488 83.517044 
-101.192390 61.796509 -44.373749 
5.268236 101.227119 73.004486 
122.987389 -17.395048 -20.808643 
-12.983167 -100.807846 -75.246429 
-12.314611 -48.665981 116.607849 
-124.104965 8.747996 22.854202 
-52.003048 -110.675423 -36.574947 
-65.704613 -79.452820 72.478134 
83.746971 -74.045441 -58.928452 
25.153629 -7.070236 -125.012680 
-46.899143 64.881569 96.869194 
55.175903 7.703040 -114.178162 
-114.470795 -44.651375 29.529692 
-126.000000 -12.757975 -11.672077 
30.119318 21.996151 -121.188988 
71.148453 103.446114 13.593082 
97.441406 63.301643 -47.377918 
-24.006252 91.882965 82.483147 
-39.638908 117.090561 -22.597469 
13.451488 17.598925 -125.274979 
-37.075859 119.775726 3.096937 
-121.950165 18.384741 -29.093870 
81.568642 -73.191376 63.031094 
40.895660 -50.408844 107.669495 
-87.835571 -47.339130 -78.141212 
117.878098 -26.303194 33.686577 
-60.323334 110.295502 10.844826 
-73.159515 23.805239 99.910049 
101.637421 46.751675 -56.765778 
-92.688705 -64.098289 56.811691 
81.647011 -2.952574 -95.755455 
82.662567 -84.019073 -44.494343 
-121.924820 -27.045691 20.843571 
92.871140 4.335432 -85.122078 
-52.585560 -110.014503 36.436352 
53.452808 -109.555428 -34.531982 
-67.081139 27.918863 103.008270 
61.492393 -60.249588 -92.415779 
-112.344254 35.320007 45.698410 
-124.282852 20.221916 14.336983 
-4.992925 -55.026123 113.881714 
71.615860 11.621653 -103.747910 
49.262531 -51.478149 103.712234 
49.714249 -84.188507 79.046623 
-36.504929 -41.448494 -115.001190 
91.197578 33.680431 -79.645706 
21.563219 -110.965858 56.770126 
-45.382698 -118.117538 5.711822 
-119.005356 43.351963 10.030604 
26.526114 108.291168 -58.400246 
-42.922283 -91.115089 -77.281952 
-31.741325 -82.283760 -91.215042 
18.695532 -120.240295 -36.810917 
-108.670959 -57.095562 -32.326744 
-72.227859 -54.352959 -88.950478 
-94.523499 -76.501038 34.731262 
86.935776 21.881943 -88.107971 
-84.198433 -66.828873 -67.527618 
-45.670219 100.198769 61.875320 
26.043671 119.999237 -28.597113 
-64.494858 44.807011 98.069305 
-105.128883 64.195534 27.253246 
-76.095016 -101.962616 4.409785 
94.645569 -29.747364 -77.563560 
-5.757700 58.712181 111.112564 
50.321285 115.217186 -12.934292 
-6.726903 -111.177559 59.154533 
-66.115448 -105.551804 21.844332 
121.173553 32.654236 13.234262 
48.327576 36.708225 109.708786 
33.110970 117.228210 -31.087105 
-116.399185 -43.539085 -25.589420 
45.891743 116.326263 14.421612 
-56.750687 -25.109606 109.893745 
3.958613 116.200348 -47.457951 
13.322269 -122.027550 28.286095 
118.765953 21.058094 35.228825 
87.629105 -74.684410 50.062798 
30.003147 -121.053902 -21.857101 
-4.419622 -96.752151 80.928253 
-113.489746 50.520721 -22.382385 
-111.637650 -60.426945 -9.724114 
19.915901 -124.702003 -9.199559 
-4.272728 -88.863121 89.282852 
65.307373 95.073647 -49.032253 
42.848404 109.101936 -45.912334 
-5.138295 51.617012 115.385880 
31.724764 -122.168076 10.274690 
-63.999107 -62.253716 -90.295418 
-33.667763 -40.656918 115.543144 
-99.119614 -30.713276 -72.748131 
31.662041 -13.043058 -122.473877 
104.384842 -24.629963 65.303009 
-102.661217 39.247597 62.305969 
-39.104820 119.126457 -4.457706 
-31.846430 -100.713074 -69.886421 
8.694095 122.130447 -26.100489 
75.641846 47.820618 -88.504227 
78.840881 -91.651566 33.642075 
124.847923 13.790794 10.282602 
-7.566355 -61.535976 109.801643 
-79.680954 -36.295174 -91.313133 
-9.236233 111.746040 -56.375000 
124.240906 -17.947243 -4.477921 
25.722744 6.882749 123.829445 
92.662109 71.110016 44.342903 
-83.445976 -94.347610 15.172715 
-38.786110 66.539841 99.435791 
113.146317 -53.670437 15.398365 
-73.129898 103.057022 5.194825 
-47.497459 113.854370 -25.923336 
-78.073326 -25.066261 95.555214 
111.587357 -45.412354 -36.658951 
-99.432205 -39.045761 -68.206581 
-121.046005 -21.127172 -30.093548 
61.970566 -109.799240 8.285554 
24.882851 15.628895 -123.747223 
33.834583 118.727463 -22.628254 
-73.925049 -62.728146 81.590843 
23.714710 -116.663300 44.223663 
-121.131584 -23.825569 27.916519 
57.676086 111.226563 12.473730 
11.856790 73.663147 101.579979 
98.909943 -77.243210 -13.428814 
-93.604340 -47.885391 -70.725906 
-41.994137 -84.977264 84.204124 
-0.999457 -17.709343 -125.675858 
95.518570 -37.842018 71.478554 
106.624718 21.636869 -63.909817 
110.263229 -51.292126 -31.576811 
-11.410877 43.746696 -118.889610 
20.119564 114.905441 46.415306 
20.267853 -25.106388 -123.085892 
104.466393 -10.474248 -69.950356 
64.984436 42.277763 98.510986 
118.170486 -41.366665 -18.522568 
-41.285019 -106.920044 53.369045 
-3.397862 -124.124123 -24.826138 
-55.174541 3.874826 114.067673 
38.759071 -114.564171 -39.266212 
-63.118805 15.263641 107.974518 
70.717285 103.855446 -1.185072 
59.531139 -35.840458 -105.939285 
-124.352257 -3.730637 21.568274 
109.126717 -57.229324 -25.617912 
-5.306366 -116.695541 -48.500977 
59.898754 -73.380997 83.326363 
105.003700 -30.775761 -63.403988 
-25.644112 103.803467 -67.108894 
-113.483963 -45.178570 -33.925056 
-119.454025 -21.234362 -37.865070 
-105.850151 51.819946 44.595238 
45.977066 30.570393 -114.154671 
77.834480 98.367332 -12.070192 
95.388954 -14.903413 -80.528847 
-65.520477 16.828131 -107.183601 
-5.898857 -124.048203 23.824879 
23.278675 117.699623 -40.944267 
-45.766960 -102.662247 59.054604 
122.527344 15.642820 -23.121773 
85.947540 52.822327 -75.008858 
-103.939896 70.953880 -0.205856 
38.511810 -108.718826 -51.884617 
79.346291 -53.194397 81.859596 
86.616821 -67.223984 -62.861893 
125.000000 -10.869226 9.869962 
-49.607269 -105.709335 49.202408 
52.619923 -80.869476 -82.041649 
-101.049210 49.720135 -57.331890 
61.511719 -67.908669 -87.298553 
-51.836868 -16.503052 114.799789 
-23.516987 -121.143341 29.500366 
30.034954 92.683273 78.511444 
93.511871 83.328163 7.968724 
-90.550789 48.462772 72.662849 
-51.884148 -5.585436 116.037079 
-100.516464 -0.526114 -76.447121 
27.776365 63.673786 104.955994 
80.632889 5.857881 95.716217 
91.433945 79.759995 -31.695305 
-30.975945 -114.214165 -46.254368 
-122.771225 29.789663 9.607327 
-24.377312 -11.063169 124.036758 
25.662426 121.344940 21.610012 
-61.072159 108.259666 -19.774426 
-76.237785 -79.683167 -62.977673 
12.104527 120.355377 -33.017647 
-79.872299 8.379465 97.184143 
102.314194 62.349560 -39.726166 
-70.152351 84.702393 60.868538 
-93.112022 -5.970081 84.841240 
64.737373 17.212717 105.997116 
93.601997 -32.105217 77.068764 
5.491400 -86.998238 -91.872108 
-6.367668 -125.702347 -16.557247 
67.476173 27.314556 -103.375717 
87.934784 -85.332161 -28.908312 
-61.514839 -45.915321 -101.199020 
4.036055 -113.737030 -55.045940 
74.201157 -93.362877 40.466866 
32.559772 -5.134950 -122.816643 
46.186340 -0.177839 117.540359 
91.038269 59.746056 -63.513241 
-102.346542 13.272069 72.218277 
-69.404465 -40.750175 -98.248665 
74.504120 -97.346397 28.311079 
-0.310247 119.235603 -41.552021 
-107.457787 66.336655 -8.734507 
-7.457942 107.919815 63.690350 
31.720308 -3.994559 122.153397 
18.563551 -123.208405 20.148445 
-40.334423 -96.564659 -71.806488 
88.458572 83.873947 27.781471 
-57.789810 42.588623 103.496002 
-10.210249 116.347565 -46.225529 
-50.139282 -25.332329 -114.308952 
7.932464 125.007507 11.029551 
-126.000000 9.783171 7.927885 
-88.425316 89.281281 -4.177967 
35.751236 -105.587601 58.935432 
22.902187 91.501297 -84.030807 
-41.342117 -50.048798 108.119370 
-34.721394 -81.208214 90.263794 
47.621929 -116.254028 17.000910 
4.557290 -39.859810 119.739029 
2.934044 -93.883339 84.727036 
-110.097939 -14.115789 -62.762741 
-78.763954 72.756882 -67.301933 
71.499580 -38.258255 95.608673 
-52.301590 -112.149734 28.269533 
50.608051 19.359013 -114.878967 
-20.099735 -118.098892 41.895573 
39.963692 55.862270 -106.118088 
-42.675343 109.985580 -45.052280 
67.059517 -79.827888 -70.897598 
21.140907 7.484954 -125.279739 
-110.056274 -40.297699 47.064762 
37.037666 38.447395 114.338272 
116.543701 36.798096 -29.799427 
-38.199226 -20.083601 -119.788284 
-40.282604 -118.063820 -22.238605 
86.721405 89.658142 -14.857850 
-16.880121 -54.458260 113.091278 
-60.172073 39.472191 -104.435623 
-6.038959 33.486542 121.386360 
-77.865669 95.242233 -26.709866 
22.869164 102.111099 69.076424 
-34.050915 6.165770 121.570129 
56.823566 -95.809952 58.230305 
-45.958237 11.925707 -118.455193 
-84.431129 83.403923 41.637035 
52.565994 34.028606 -109.707474 
-122.077576 -34.396645 -0.633194 
-42.239010 -101.880959 -63.994911 
120.604324 -10.230121 -36.857494 
-37.840683 -65.715073 -102.288200 
49.026939 113.855141 21.188343 
11.949563 96.050964 79.315697 
79.023041 -50.251564 -85.323441 
-121.597694 8.670813 -36.892029 
-83.378143 91.858055 19.521847 
-117.948013 28.567503 -36.291725 
-81.735771 -83.336334 -48.459831 
123.696526 -16.409142 16.598761 
44.922249 44.262634 108.397423 
-89.780228 87.997681 4.937585 
33.213257 -117.432388 -34.295612 
-59.266712 31.185555 106.579941 
-13.375427 -28.435307 122.686333 
29.839262 -88.021431 -86.364182 
-89.691780 -87.900528 16.941776 
91.050598 -67.828354 53.159195 
-117.458008 -12.549934 46.727989 
-89.970078 -74.013687 -49.545029 
-97.191818 71.174026 -37.874191 
-7.969983 -69.925201 -105.785805 
54.553143 -103.511604 -47.646339 
17.455696 -32.083424 120.820946 
43.173370 -82.434097 85.207153 
-114.511047 20.346642 -49.578140 
-2.940981 93.815918 83.972252 
16.695610 74.087303 -101.558495 
60.035439 83.530746 71.264809 
104.014069 -55.296425 44.097717 
-106.367493 34.883617 -59.529919 
83.368782 93.124313 -7.592238 
-96.591270 63.011288 50.068970 
108.193542 -43.859299 -46.662727 
-47.546448 -95.165604 -69.138474 
-107.250366 25.941998 61.618492 
-67.721687 -47.891846 -95.549789 
-41.978367 42.181335 -112.005089 
19.890385 123.536636 13.723379 
-78.543221 -97.719505 -19.690630 
-15.050695 122.580887 -23.138071 
-103.967644 -43.718784 -57.581497 
-89.732391 -82.939880 33.371231 
-36.091591 -11.609127 -121.657188 
-126.000000 -4.969299 -10.550918 
60.555870 -109.766525 16.530050 
65.146988 -91.739700 -57.488121 
-102.541794 -18.049545 -72.000870 
44.856293 62.849434 -99.927391 
-13.937362 73.262421 -102.887573 
114.601982 36.249813 -38.136051 
-49.912560 3.926080 -117.667984 
-123.619873 -26.376635 -7.929250 
-124.687523 -12.457204 19.824903 
121.051727 12.244542 -34.490273 
-18.226776 -85.487701 -92.128120 
35.274326 89.516594 -81.491112 
8.286833 -36.541969 -121.554047 
85.936256 -53.159767 -75.421608 
-61.138958 -95.247452 -56.512718 
124.999992 -4.725585 1.353162 
13.306875 -111.636276 56.940811 
-76.766983 52.406372 85.108238 
-40.763840 -114.365936 37.599876 
-72.664276 -73.441757 72.373260 
