-22.695063 38.807396 118.038483 
29.883387 65.325912 -104.448532 
-13.623034 123.694695 16.678144 
-57.746529 87.659515 68.599098 
-80.967018 37.296482 88.487022 
-73.216537 85.635384 -55.797577 
43.218033 -11.130687 -119.111198 
-116.775032 48.218117 -13.265164 
-6.423898 76.910446 -100.055161 
108.214935 26.976961 56.738655 
4.306864 83.664574 -93.824257 
22.012726 -119.651917 36.886559 
66.116158 71.891457 -79.059662 
-61.353371 82.472488 -73.214470 
11.968754 121.580620 -26.906433 
-72.476776 -92.829292 -46.429749 
10.983405 114.293243 49.225388 
-60.789261 110.032150 -10.855240 
-99.854294 46.018875 -63.100250 
22.228035 6.636324 -125.227791 
-40.204872 -5.205244 119.735657 
103.080559 69.983231 15.137205 
-69.497665 93.501282 -48.100075 
41.739643 99.265938 -65.912895 
-23.058088 -117.782364 -43.140343 
-47.900337 -48.009880 106.309784 
103.012398 -3.216982 -71.858719 
63.567749 -84.774773 67.851227 
-106.925827 7.117980 67.034851 
95.378319 -81.606300 -14.739967 
97.346268 -73.205902 -30.711674 
-97.605400 -62.270996 50.451294 
-56.873730 100.000519 49.527744 
-53.505241 -32.210541 -110.677200 
-43.980629 -108.931320 47.383133 
-80.589348 -26.802567 -93.955566 
-113.396996 -27.232424 47.940689 
-68.336517 68.737518 -81.363007 
42.141052 -73.383171 92.863617 
-0.462706 84.419479 92.592239 
26.388115 -38.739689 -118.511536 
111.791252 -57.278648 -15.087753 
116.294327 -48.085083 -1.154650 
19.660994 -104.291298 68.422714 
52.869133 -98.040619 -59.639210 
-4.003633 -8.015948 126.010933 
-30.277859 -43.749214 -116.358475 
-103.132706 -60.677368 -43.764278 
-32.483795 -119.656616 25.262867 
115.369537 -22.233105 -45.155560 
-89.747238 -88.164406 -16.557360 
-121.568588 36.043358 -5.414566 
-87.151871 86.386925 25.831491 
-108.978455 58.649025 -26.014734 
-70.029945 100.848770 -28.181499 
-108.161179 65.413452 6.499069 
-112.915306 38.828281 41.665756 
-72.782181 -70.947311 74.920670 
26.080067 -123.974380 1.280965 
12.288976 119.437912 37.006088 
-32.290123 1.308141 122.307159 
15.073744 -14.704370 -125.390373 
-42.497421 -113.446175 39.112495 
-0.751147 -115.121513 51.683273 
-78.028946 -71.866516 69.007568 
-14.549519 102.057846 -71.851776 
21.967403 69.525345 102.672104 
49.802071 1.066890 116.383339 
-52.498642 -67.749809 92.306511 
69.689720 98.925514 -33.971634 
-114.634720 29.010273 43.998871 
-92.060249 54.338417 67.138138 
117.579582 42.713272 15.700880 
-43.272572 -60.333023 102.577957 
-33.825703 117.106560 -31.638763 
-21.572933 -68.248077 104.271667 
106.517128 -64.327103 21.024300 
102.522491 -71.489059 -16.753387 
-43.658512 103.580475 -57.554333 
-39.924282 86.308594 -83.978981 
108.196671 -65.054375 4.193802 
-27.705961 118.029053 36.190063 
96.524925 71.026283 -37.150272 
23.410439 -96.617188 -78.402725 
121.723747 -26.486382 16.563343 
76.030922 96.324989 24.691933 
-9.162981 45.040493 -118.613548 
-49.572731 -40.323952 108.677460 
-108.812912 17.009525 62.617981 
39.542103 116.844124 21.401157 
5.270300 -15.703533 -125.758698 
-9.679862 115.579498 47.129696 
-32.939243 104.600174 61.420868 
-45.849174 -72.405128 92.247910 
-115.592484 -1.307787 -51.798210 
-88.682800 -86.436157 25.020218 
115.984352 -46.332214 -18.185261 
-111.034714 -52.170502 -31.689281 
-76.166893 -3.354989 100.894516 
-32.414314 -104.244736 -65.000076 
32.536385 7.155735 -122.679512 
-57.220955 33.336998 107.110519 
49.127640 113.999954 20.372217 
122.245308 -26.083153 -16.158216 
75.945335 93.401001 -34.097687 
-4.413983 118.014168 -43.657047 
-0.458509 -75.979218 101.092911 
44.220715 -118.169373 -2.758588 
-85.047554 -33.495037 -87.853134 
-44.293930 27.756987 -116.413071 
64.573387 6.547396 107.683273 
-106.220184 -52.018787 -45.550385 
38.204720 29.144234 -117.799759 
-103.225998 -72.890869 8.442698 
43.256260 117.477997 -11.306615 
66.275879 71.650696 78.248199 
115.337433 -1.801504 49.172871 
90.004135 -64.661491 59.203335 
125.000000 7.215946 6.331418 
-42.493431 -100.311020 64.962204 
124.677444 -15.677290 11.294237 
-24.518723 -122.199341 -24.199005 
-111.340004 -21.248747 55.427608 
45.506088 72.561852 91.043320 
40.021996 16.924828 -119.290161 
-78.193718 4.734043 98.974380 
98.661682 72.617226 23.744848 
60.533661 -99.005569 47.903297 
104.560829 5.040979 -69.826416 
58.941349 77.712166 -79.534599 
-125.755104 12.009718 -15.273432 
4.957885 74.618271 -102.073692 
52.834637 -114.963028 4.612893 
29.875061 -27.542194 -120.456573 
125.000000 6.480336 -9.627373 
22.568020 -116.795349 -45.122871 
-41.292503 108.117828 48.633907 
83.566132 45.986866 81.403267 
-69.740410 -10.420034 -105.833221 
49.100750 89.753311 71.673050 
111.736206 47.749893 29.060539 
-31.143372 120.910004 16.734398 
68.880661 -105.893532 12.005408 
85.522667 58.398521 69.835968 
22.142754 119.831909 -31.743979 
-47.997093 106.729317 -48.101692 
41.365864 -36.621380 -114.694260 
-75.246376 88.189186 -48.495201 
-26.500263 -120.435349 -32.202793 
52.475838 68.229301 -91.789749 
64.621033 79.343636 -72.538925 
78.639069 57.880695 77.985428 
21.322935 109.933273 -57.873886 
52.217190 19.685219 -113.886513 
-121.735596 -8.095408 -36.174908 
-50.812679 113.418945 22.070114 
-72.440689 48.189674 -91.590385 
80.821732 33.876419 -90.045479 
116.107758 -13.439385 -48.085686 
28.426746 110.346214 -53.023083 
83.943756 -86.797577 34.630936 
-17.659489 111.113022 -56.129993 
47.885921 -94.856827 -68.600220 
87.004196 89.680237 -5.826307 
-103.790733 -20.165154 68.556183 
-103.163490 -2.297983 71.972916 
-0.246815 -69.170715 105.534607 
97.134766 -55.104809 -59.479164 
81.987488 16.376348 92.848991 
-105.859413 44.282074 51.333031 
-23.263906 -108.631042 -62.561985 
-18.088825 80.181885 95.034294 
-71.096558 46.205055 92.448730 
77.167160 -87.238457 46.263954 
69.724998 50.495773 90.688583 
-62.645149 67.522125 -86.812500 
124.892059 2.596950 13.561314 
21.274879 28.124214 120.937347 
-91.682419 81.165031 29.518522 
-37.490925 -117.761795 -28.080627 
-52.375504 -110.491074 -36.463955 
-109.817902 31.987007 -53.907104 
-116.592300 20.410225 44.231930 
82.339699 -84.912796 -43.469025 
-122.373489 -11.539936 31.857868 
27.442513 -102.916306 67.412018 
-37.790302 7.255975 -121.299522 
-123.778145 -4.319120 -25.553665 
-68.993561 -97.799751 41.722588 
-119.312851 38.010204 -21.722569 
68.243996 -106.141594 -14.400351 
95.711990 -81.440506 3.184880 
-111.188416 46.898628 37.137245 
-90.630547 -28.951839 83.440559 
115.485321 -33.602463 36.866821 
-92.107269 36.091801 -78.533745 
114.943420 15.056726 48.230522 
8.005620 -55.616451 -114.311378 
73.550598 80.237518 61.884266 
123.059433 -24.090939 -8.139675 
81.689598 90.085831 -27.838873 
118.906853 19.792847 -36.143982 
-23.613865 122.225945 18.348162 
-125.843681 4.036465 -14.812885 
-41.469425 67.584282 -98.267380 
77.386841 -5.666582 -99.791412 
-116.477905 44.094025 21.732706 
89.162697 -21.869913 -86.357712 
20.046068 116.313393 -44.511307 
-101.942154 -70.514145 -25.376310 
-88.131378 89.217972 -15.140787 
-3.606653 -126.599258 2.960162 
-3.809325 -45.364395 117.976639 
97.269371 -67.982903 41.705112 
-113.007118 -47.266174 30.603725 
3.333300 120.713974 -34.819695 
102.918198 -20.040405 -69.429680 
-1.903632 22.993668 124.323540 
-24.537621 -35.496231 118.883202 
50.623749 -94.806320 65.648178 
42.450745 106.823936 -50.891121 
-48.347786 -114.101959 -28.294401 
71.408524 79.998726 -65.542099 
-118.792435 -12.475195 -44.816505 
-52.525654 7.481883 -116.366882 
-110.127335 -19.926434 -59.876904 
14.232798 -78.839294 -98.589653 
-86.142815 21.061102 -90.052025 
-102.952805 51.863853 50.545799 
61.061646 107.986603 -19.625326 
-6.244123 13.980675 -125.837440 
120.215622 -38.878784 -0.033640 
68.426888 42.662895 -96.627228 
-25.988953 111.443924 52.119511 
-60.627872 -77.603546 -80.064171 
64.881165 103.972763 -26.770943 
-40.782558 -117.324837 23.440306 
100.637520 -48.514771 57.144302 
15.286527 113.706085 -50.951683 
-91.488373 -20.917667 84.304413 
110.077347 57.382538 -20.106709 
-13.141085 86.685219 -90.595062 
-78.814560 -63.098774 75.547165 
121.233810 19.037441 -25.497570 
11.823257 124.103104 15.401485 
63.784100 -1.237502 -109.218369 
-64.952400 -72.629822 80.406067 
50.921570 -47.620941 -105.800438 
49.877541 85.662704 -76.925606 
115.323730 22.428539 -44.759308 
48.287632 -116.867958 10.752202 
-72.048294 59.970688 84.756073 
-68.333420 -57.030487 89.572029 
-115.854187 -1.075803 50.227230 
-20.360653 123.766083 10.737884 
-98.212852 71.130753 33.402225 
-12.299528 -98.648262 77.170509 
96.383926 0.125081 -80.558609 
-62.121056 -99.733337 46.103474 
-52.498566 68.360313 -92.232887 
-48.255432 -70.671455 -93.539795 
-112.926620 56.614658 8.002693 
-15.716572 -10.850761 124.863762 
-98.271301 54.997688 57.407471 
-18.450840 74.625923 -100.837448 
89.933540 39.807213 76.959450 
-53.740135 -99.116821 56.795261 
37.253014 -90.660652 -80.481667 
-32.423416 -8.475496 121.985916 
99.112320 59.680332 48.115440 
37.502453 -27.573921 -118.452873 
-112.281288 -54.608212 20.605574 
111.044258 45.179665 -37.726715 
-62.884693 11.313167 108.718178 
-44.662697 -118.347931 0.703575 
-110.317055 -37.443886 -50.082619 
96.977852 47.076817 64.242867 
-65.860260 7.559116 -108.361679 
-118.132126 45.257168 -3.491585 
-31.433825 24.593266 119.649406 
-35.715046 -112.520737 45.667015 
-88.499580 -2.457238 89.210915 
-86.865479 44.519485 79.302917 
61.082970 -79.834465 75.362709 
-42.409470 114.802078 28.575989 
-60.486584 -107.752449 25.478592 
-73.997101 -76.815964 -68.470833 
-83.792610 -1.072799 -94.670158 
-37.907921 101.917923 -64.447021 
-56.109142 107.885315 33.202084 
87.191650 7.872087 89.502655 
95.838074 73.668121 31.240217 
-86.135788 -23.308161 -89.635963 
122.064095 28.266699 -0.032585 
-67.631699 -106.663574 -16.125294 
-28.972809 59.988338 -107.854958 
-51.720959 46.413315 104.966759 
-40.600441 2.592888 119.647858 
-34.384785 64.526070 -103.721252 
59.232258 -22.045782 108.577103 
6.584306 116.170486 -47.082424 
52.580696 22.777735 111.977921 
124.775360 12.667376 -15.168146 
-46.920128 1.981999 -118.625557 
26.620338 84.554802 88.418617 
-120.727272 30.031443 -23.730677 
30.099802 29.047453 -119.856163 
27.621521 -2.460848 -124.481117 
92.401291 18.137140 82.366898 
-79.195251 -95.289360 -25.051989 
49.715252 -15.515917 -116.616898 
-37.469879 76.421478 -93.260773 
121.525963 -32.065052 -5.539926 
-109.663406 57.921970 23.865047 
-111.731628 0.829143 -60.221905 
-8.055634 -74.171555 102.195160 
-59.819160 18.811188 109.434135 
-113.993225 -10.459255 54.287491 
86.607422 -77.044777 48.706863 
-8.662266 81.339844 94.668243 
50.415131 -112.298965 30.098640 
89.242096 34.575165 -81.595566 
77.607224 98.582626 -1.913131 
-51.602856 36.407307 -109.682175 
12.474691 -123.515343 -24.395462 
37.739555 72.709930 94.561668 
-110.069443 62.848480 -6.241091 
-16.935957 44.172379 117.277130 
66.576965 -97.314697 -45.293564 
10.603289 6.911147 -126.005569 
40.777386 -118.499023 16.773970 
-100.957809 -74.406265 -18.108318 
50.636398 -112.608673 -29.073006 
79.741676 -70.288773 -68.475845 
-90.065544 80.856232 -36.934761 
120.615555 -9.893742 -36.799076 
18.516043 -113.212456 52.576828 
80.338982 -53.336880 80.642136 
23.315403 -16.181320 -124.256340 
-87.172462 -90.116882 17.510475 
38.078144 118.007500 -19.510315 
-80.191551 90.463707 33.210152 
30.981915 -83.025291 89.499344 
36.088478 -92.661591 77.317474 
19.490618 61.579815 -108.632141 
-102.055748 22.328209 70.087959 
-79.233902 12.569790 96.806458 
-116.269745 -44.579964 -24.366476 
56.255432 91.708794 64.132004 
70.246445 -12.382634 103.617851 
-70.305458 82.357841 64.011894 
-97.059158 24.670116 75.980881 
93.437943 -27.279482 78.958076 
-96.048378 76.717850 -26.677687 
97.229828 29.787853 -73.900276 
-75.053116 101.949677 -3.985043 
-84.071709 -79.960381 49.753937 
-91.895691 -25.336586 -83.766876 
41.742512 -54.477097 -106.513573 
75.321655 70.875687 -71.574570 
-67.220093 87.900459 -60.878094 
-57.288612 -104.852524 -42.997391 
53.229523 -43.035782 105.465881 
-99.788231 22.696095 -73.666039 
-1.215329 122.223404 29.257557 
125.000000 -4.251842 7.556840 
23.393644 -1.273057 124.300735 
-26.127581 -62.960114 -107.398384 
98.062088 55.221493 55.563240 
-1.510128 74.846825 101.189522 
-12.205358 -125.643852 10.462603 
-82.472908 -1.829289 94.920395 
63.588013 -106.288391 -23.298170 
115.455254 34.621635 35.451294 
-58.885235 63.200935 91.021721 
-18.217850 -19.289116 124.038925 
-64.379730 34.830631 102.863068 
-108.386833 39.313255 -51.464016 
-36.455524 28.788593 -118.605003 
-87.842377 43.477688 -79.751060 
-46.392437 20.256208 -117.284943 
-81.386398 47.102673 -85.409393 
74.443115 89.796616 44.471939 
-123.298714 -11.979948 -28.046707 
5.318324 12.773117 -125.935631 
-91.254921 -46.247234 73.597748 
11.119135 -45.228134 117.658844 
51.711388 106.049294 -44.164391 
-10.910200 73.964325 101.416077 
15.910467 -3.459787 125.133530 
-60.771618 70.023804 85.255096 
115.789810 41.478333 24.556374 
75.828682 69.841614 71.228378 
-32.084183 113.856224 43.231430 
-53.330231 -103.506790 -49.954720 
-52.043465 95.208504 63.674644 
-79.194458 39.692421 -90.028946 
-79.839905 56.008751 79.497574 
2.867505 122.624374 -26.765572 
-20.355331 119.170113 -36.886322 
114.391701 -52.236298 5.196763 
-126.000000 11.378651 9.282943 
-73.184029 -99.189316 -30.361401 
82.321014 66.975105 66.418221 
-24.329124 100.937485 -71.430618 
35.667728 85.483086 85.099152 
74.076996 -64.250565 79.127831 
33.760868 -73.040215 97.043358 
80.779816 -76.701164 -59.755028 
-111.087090 -56.965359 -22.716078 
-96.877106 -42.915848 68.404839 
61.089027 -50.969406 -98.188644 
-113.152222 55.245380 -15.511026 
-100.909988 -36.837563 -67.550125 
-69.017921 77.049255 70.798737 
-34.836899 -0.884662 -122.492195 
-44.580399 11.696355 117.915070 
67.134644 105.880417 -11.572943 
-93.179741 66.576935 -52.244560 
-36.745380 -111.318848 -48.198723 
-13.087719 18.803368 -125.257774 
109.008171 -10.239373 62.982185 
-5.701075 -102.342712 72.922058 
-81.745827 95.609222 11.371665 
49.062237 -108.464005 43.577168 
26.115353 -120.348618 -31.613054 
-64.701050 103.414337 30.253590 
90.317001 71.813507 47.600441 
-125.999992 -7.579097 -1.564252 
103.812584 -14.520523 68.996918 
-116.032722 -50.519669 13.547955 
123.317200 0.151595 21.750586 
-68.562843 -22.055452 -104.779404 
46.662521 8.326389 -118.156601 
7.773746 8.150846 125.672958 
72.533875 -52.420837 87.966789 
-103.170792 67.164749 -27.047144 
19.389534 -116.725830 44.927677 
-23.868515 -49.634968 -115.530907 
57.910286 32.417496 -107.484421 
-103.653137 28.717239 -66.961159 
82.330582 -29.211906 -90.831734 
120.719284 11.651128 -36.259724 
-5.518255 109.078606 61.958149 
-61.326775 -68.069633 86.875885 
-62.222805 -11.434947 -110.233452 
5.100194 -32.786049 -122.867897 
69.533058 -93.598503 47.049786 
33.674427 -28.016666 118.368652 
-80.883911 -91.231819 -32.880505 
-47.691574 -108.891724 -45.886234 
87.661705 76.480972 -47.204651 
120.259705 -21.147629 28.008875 
-116.889709 12.754244 47.419945 
6.950664 -82.451218 94.635414 
0.060047 -123.843811 26.646782 
65.888626 39.501247 99.279648 
104.985474 57.355972 39.335514 
-35.837852 49.120766 110.258652 
-95.319534 -6.354617 82.268120 
123.694565 -7.681859 19.788280 
6.910565 37.907249 119.888847 
-13.243910 -63.600780 -109.356842 
-43.758976 37.480774 -113.329147 
-36.634811 -104.962242 60.388916 
-10.582355 -105.159012 -69.489105 
-89.396484 62.858524 -64.083511 
-62.084091 99.717316 -45.289268 
68.776184 -86.185577 60.610298 
-78.661842 20.566814 95.606255 
82.463402 -14.413189 92.707664 
96.953461 -29.285397 -74.618896 
92.274269 40.498718 -74.514816 
110.702202 -38.747704 -46.077538 
-58.064323 -37.205109 -106.732597 
112.817772 54.670319 6.757033 
-28.589554 105.750961 -62.937057 
-12.040827 -46.546005 117.283112 
17.032290 51.335495 114.130508 
14.038816 71.060631 -104.209763 
-61.729385 -15.237789 108.828445 
119.734268 27.294662 -24.248983 
64.710258 91.731483 -56.080681 
102.676003 71.300232 -2.804581 
116.370590 -10.097057 46.918724 
33.309601 -120.464432 18.847542 
-118.933609 -44.508472 4.517844 
-94.696594 -75.054520 38.117905 
-48.159233 103.046661 53.832005 
-122.779175 18.188057 -25.132048 
-28.279739 -82.515457 -91.990921 
77.904739 10.224240 97.778725 
-101.864853 59.032253 45.881546 
-22.302357 98.738800 74.165894 
79.414665 -83.248703 -50.726418 
-96.742416 80.400574 -0.132513 
-28.689445 -71.490646 -101.501541 
57.261742 -29.695192 107.733810 
-75.103966 -65.912468 -78.696999 
85.358910 -63.270058 67.055588 
43.845543 -50.768570 106.282112 
19.603926 -91.184120 85.443657 
58.793446 85.833725 -70.349449 
-76.765121 -49.958130 -87.842468 
-59.431019 96.813553 -53.870773 
-96.537720 -16.261671 78.962585 
111.594780 -19.514906 -54.608505 
89.937325 68.919899 -53.354397 
81.153702 -56.193447 -78.213730 
35.697762 -36.959785 116.013206 
-55.745415 -109.091705 32.129608 
-20.940386 -110.184845 58.669586 
60.404118 70.200638 84.743866 
-50.260761 -95.928917 65.310745 
-108.424904 55.107727 34.087967 
41.787331 -24.334000 116.870193 
-25.037407 -11.696130 123.820526 
-23.486713 -124.383659 13.034115 
18.785526 -57.011372 -112.168861 
-35.048576 16.753254 -121.082047 
92.029320 -68.182053 50.925999 
-79.689590 -56.361992 79.960419 
122.096405 10.234032 28.098701 
15.762743 -34.782116 120.406868 
-96.657028 7.048520 -81.512650 
-107.419113 -28.393654 60.481133 
-20.641895 -87.187798 -89.982971 
-69.794220 -59.352776 -88.216782 
-96.864059 -11.275511 -81.005951 
111.619743 23.814293 -52.141972 
93.007210 83.990532 -8.668700 
27.806614 -43.701019 115.879181 
6.864491 -111.976990 -58.325005 
-115.520187 -38.671928 35.886948 
-35.125908 40.742374 114.428940 
-83.787964 -71.776009 62.727806 
9.572453 -125.895493 -4.164617 
-29.540955 -123.186897 2.739334 
90.518837 -37.294235 78.041229 
-21.003939 -81.930229 93.503220 
-72.136566 -62.598446 83.796761 
-116.584961 39.560581 -29.630482 
-50.122620 -113.525612 27.176180 
-68.895599 -87.548637 59.665604 
44.353752 -43.447781 109.435905 
-105.926697 -42.974064 53.128487 
41.579304 111.121353 -42.704430 
85.438324 -69.711151 -61.668713 
-61.434380 -46.184349 -101.109894 
110.599213 -59.889874 14.160708 
26.797209 40.749756 -117.629135 
6.526343 -5.178352 126.039070 
-9.239473 124.415588 -17.220909 
46.978775 -40.534317 -110.431244 
89.363739 27.329872 -84.961952 
101.663391 -71.598038 18.709496 
-11.731439 87.186829 89.115189 
-92.508316 60.181293 61.099186 
-114.849480 38.024506 -38.800694 
113.073181 30.455643 44.332649 
-87.643227 69.271515 -58.717815 
-0.087014 -118.104218 -46.303448 
-51.595119 -100.652679 -57.154087 
19.852917 -124.709282 10.053818 
-118.783234 -28.449253 33.017395 
2.091600 -50.274422 -117.475739 
90.214584 -29.330732 -83.563583 
49.944454 -114.782059 20.202564 
75.579788 -101.503365 6.691114 
20.766722 -124.603844 -5.947734 
-68.807060 43.516903 -96.751884 
-79.296417 77.352783 -60.696938 
26.674706 -113.589668 48.704193 
115.172386 -1.951668 -50.532963 
-73.529800 96.637009 32.984287 
92.719742 -5.675080 84.265503 
39.061867 -66.599472 99.555305 
50.986725 -103.082741 -52.415791 
-4.192899 21.567656 -125.289604 
-68.910408 103.987953 19.166578 
55.868496 1.107219 -114.036575 
-43.798660 -105.443787 -55.590214 
113.599991 5.138617 52.963654 
100.143250 14.683321 73.235001 
26.476456 -106.865021 -63.419098 
-0.346937 114.709976 -51.432270 
-68.605194 80.007523 -69.127396 
-84.476395 -48.339176 -81.761360 
-103.265144 -36.569099 63.796326 
81.745453 -59.196148 74.575462 
118.979424 -15.021045 40.172672 
118.889740 -3.814520 -42.422379 
-10.367428 36.546036 -121.178604 
53.303684 113.697914 -11.563787 
78.197823 1.189319 98.023117 
93.296005 80.800949 20.812181 
55.408665 -113.508148 -3.033617 
-11.420779 -68.072662 105.731461 
-20.977434 39.554981 -119.167130 
101.805473 -25.815571 68.352112 
6.041200 112.371078 -55.463184 
-121.993927 26.462482 18.770962 
-14.151228 107.337509 63.653698 
13.242521 31.553316 121.403793 
91.857155 62.702873 -58.152828 
58.727150 96.960152 -52.959160 
59.743271 52.712990 -97.666916 
-123.048080 -24.249630 17.911400 
54.732292 -112.287964 -19.841652 
76.492630 21.146263 -97.544853 
28.301504 62.441010 105.469574 
26.828587 72.798347 -99.741531 
44.401985 -6.368708 118.050682 
-18.781372 -121.603706 -29.509573 
-113.795425 31.646681 -45.326748 
81.655296 94.747612 -8.585357 
-32.921696 -53.165634 109.597221 
66.153008 -71.834442 79.161713 
-22.501457 -113.614624 51.083580 
-77.944046 -80.130890 -59.643250 
-82.532593 92.829475 -20.790432 
-0.077418 -121.561134 36.542603 
24.160534 118.648499 36.175583 
57.998390 -93.519638 61.250145 
30.774452 -119.414658 27.942781 
-98.831360 63.387608 -46.449654 
70.272713 63.971752 -83.701195 
88.777328 -47.471035 74.672760 
73.888802 -63.274948 -81.016953 
94.778229 -18.324520 -80.423691 
-108.302818 63.326683 18.207806 
49.867813 58.894455 -99.633545 
-37.150875 56.874470 105.872314 
22.701160 -113.411407 -52.325611 
-95.870384 -76.670135 -30.513441 
77.353485 -90.729027 -41.172287 
110.176300 -6.451346 -61.433533 
-19.820961 87.443428 88.097885 
114.086403 44.661438 -27.065571 
103.269150 64.829506 28.476919 
122.475746 21.226009 -17.837425 
-65.255836 72.964630 78.639244 
92.780312 -81.985840 -23.212589 
111.179382 -55.182617 20.593679 
25.432240 -122.980194 18.451982 
-51.568996 -89.452881 -73.075005 
-39.606655 -42.870136 112.127953 
-5.761974 62.076210 -109.968102 
-103.429161 -12.338793 71.287727 
66.170471 -19.710768 104.983719 
-23.656900 91.958054 82.529701 
56.236401 97.084953 54.827469 
-92.741562 -17.447639 -84.704094 
76.896065 12.721326 -99.006401 
20.869259 -121.987350 25.401730 
65.194618 -58.365719 -91.374893 
5.515693 -118.696007 43.064163 
-98.322929 46.493122 64.104721 
49.521614 114.324539 -19.360241 
-58.540840 -33.280209 106.748718 
106.008057 62.009987 -27.392517 
22.235685 57.049458 109.897537 
-27.915558 -91.079483 -84.234863 
103.958221 52.574577 45.687012 
-74.211098 -3.779419 -103.480209 
82.589195 0.584321 -94.862869 
-3.141662 52.751099 -115.803757 
83.640518 -93.866875 10.053835 
81.246368 84.650276 42.877151 
15.472586 14.759330 124.480675 
-6.256865 -118.707962 42.869522 
27.565094 -101.925186 -69.681412 
64.394760 -30.464962 103.578323 
-73.644424 -22.484539 100.010727 
36.809898 95.160812 72.407562 
40.973991 63.631176 -101.164642 
-4.423810 -123.291107 -27.941896 
-60.364738 -53.976646 96.813721 
40.777607 -116.186897 -28.218267 
-36.551022 119.943665 -6.541761 
107.385429 -58.880688 29.154358 
21.806896 31.035114 -121.105042 
-105.748749 53.144325 -44.563145 
106.479843 19.682629 -64.721832 
113.225044 -30.336916 -45.581703 
-101.259697 -67.200203 35.620552 
-110.258186 44.955776 -42.622578 
-23.390226 -118.074837 41.406059 
-13.539324 -84.790314 92.216682 
-56.472412 96.511314 56.533768 
-82.732613 -92.223099 24.519770 
-83.207909 82.063103 45.708809 
56.259209 104.036972 41.773373 
-103.595703 48.018482 -53.562859 
-98.231918 -25.834511 -75.383514 
84.876671 61.317364 -69.409470 
-124.011810 -24.338573 8.476022 
79.335983 23.981087 93.587189 
-106.722862 -66.883766 -17.984266 
-10.951476 6.276555 -126.043732 
-78.305107 -59.049236 -80.644905 
-99.277725 69.712669 -34.197411 
44.173019 37.184288 111.698433 
96.692062 -62.660744 -50.777542 
19.485998 -1.464524 -125.501076 
-18.144999 47.145744 -117.278656 
16.705429 -59.854385 109.705940 
-70.032036 104.807983 -12.874403 
-106.340271 -63.219604 -29.223505 
-52.771038 74.642708 86.574257 
120.014572 38.924229 -1.835356 
50.594315 115.129822 0.168752 
-40.805008 104.214279 57.037712 
77.539284 -53.400227 -84.704018 
81.678627 41.163605 -86.607681 
-77.469406 -89.629936 43.376331 
-50.901360 115.351563 12.899622 
-124.242584 6.769250 -23.138596 
-85.562500 -92.993423 9.959808 
99.417374 -57.832191 51.321678 
-17.783768 120.741318 28.333754 
61.956337 86.699913 66.048973 
57.105732 110.600945 16.394617 
-117.274124 -8.446121 47.129181 
-20.274256 -42.893639 -118.650162 
62.148071 67.815117 -86.356735 
6.860161 -37.772919 120.263092 
98.756241 62.818707 -45.663013 
-42.985680 45.313370 109.071587 
-87.204742 54.941166 -72.880783 
-12.117251 -116.129692 47.415905 
-30.228207 71.490807 -100.152565 
-90.373680 47.878113 73.191147 
-32.246910 -122.134567 13.859355 
109.324539 34.752190 50.409927 
93.176254 -18.488033 81.600555 
78.122025 97.133812 -16.843039 
-85.016426 -59.354958 71.522224 
82.299530 -70.632843 64.350807 
-94.554489 83.272232 -7.927678 
-33.891895 -115.562820 -41.613091 
4.030583 -61.557983 -110.936752 
37.753803 -80.627640 -90.122765 
7.693148 124.518852 -16.232731 
-71.580376 100.375977 26.009876 
-8.567879 28.977192 -123.618225 
7.904937 -66.569641 106.810745 
-126.000000 1.824035 -6.268075 
74.751801 44.687439 -90.864784 
97.001564 -72.303612 33.695053 
74.134521 55.708454 84.662262 
-90.265648 80.006477 38.001793 
-57.666786 -91.676544 65.079948 
-43.607132 -118.685715 -11.577971 
-12.309802 -79.070320 97.637970 
-103.452179 70.544830 15.949070 
-40.480888 118.686127 11.292265 
104.986420 -34.295094 -61.682327 
-86.982597 65.080818 63.974739 
-39.011963 23.040775 117.924507 
-36.129021 -90.883080 -81.067535 
76.101440 84.203934 51.437241 
-88.456909 -90.251343 2.521061 
-84.688599 -54.774506 -76.799744 
-5.365559 120.563843 -36.043266 
-18.772980 103.255470 68.744331 
-55.652901 -54.929218 -100.009048 
-119.152573 -34.300953 -25.986382 
-104.476746 62.177673 35.019314 
50.441593 -78.186340 85.185204 
-2.721934 -111.403862 -60.480202 
-37.157013 118.299835 -20.684017 
-37.432087 -81.320190 89.217628 
-106.622398 -68.433098 1.060882 
124.748169 10.649519 14.309533 
4.258071 20.800884 -125.334419 
37.797318 -108.792953 50.950470 
-60.320396 103.448685 39.297821 
-44.079399 76.531036 89.137848 
-32.828888 -33.263634 117.697800 
26.004957 -28.921436 120.002831 
40.296848 -108.058723 -52.018509 
-59.400562 -71.288582 -86.884720 
-97.318985 75.631088 24.279068 
33.782349 117.289116 -29.739454 
-21.290520 55.245888 -112.327866 
-28.432325 122.541656 8.985203 
45.668419 -106.172119 51.191475 
-26.705862 -123.698792 -15.658392 
-78.032417 67.531509 -73.078064 
-13.154092 96.181122 79.255196 
-0.571457 -67.323135 -107.651131 
-57.266720 -23.319340 -110.881210 
50.715153 -116.091156 -13.803982 
46.175816 24.380730 -115.954941 
111.642487 33.006710 -47.261093 
-92.214569 -58.106384 64.640404 
-43.357368 -113.754013 -37.523247 
43.650047 117.351982 -3.401341 
86.606911 88.609573 -18.280462 
110.855301 1.273204 -59.952076 
21.197224 -44.647873 -117.858833 
-76.908203 -35.717564 -93.855995 
14.220745 85.217865 90.736137 
10.141428 -95.939438 81.248192 
-117.105728 23.218348 -42.566277 
97.081078 23.402971 74.747147 
-91.903320 47.585392 -72.526627 
-122.446304 6.057715 31.479240 
-118.239075 -38.478294 25.543152 
93.426773 78.447418 -28.032831 
21.675236 -28.243855 -122.047066 
71.480347 42.017639 93.759598 
-39.127346 -11.200734 -120.726776 
-110.994347 -12.112226 -61.819920 
50.212536 92.002335 -69.095055 
-42.212078 -102.422043 -62.892288 
-42.410282 -118.863144 13.947652 
-66.613480 88.632950 59.531406 
-91.834709 -37.325588 77.750313 
-57.539326 -22.662468 110.042824 
41.677467 -73.604439 -93.768105 
-29.685118 33.914177 117.989166 
-47.047569 -96.702377 -67.661972 
-35.638054 -61.824772 104.240540 
73.516876 94.979820 35.585960 
-64.645737 106.272064 -19.658951 
-24.800884 114.747406 -47.149887 
-23.612137 66.134064 -105.524994 
-47.939587 -4.728673 117.299339 
114.803795 -51.337166 -8.599142 
-13.785679 -77.540939 -99.818398 
-57.192501 29.229824 -109.296005 
-68.384766 -104.696152 20.315264 
110.737259 -23.418118 53.739082 
106.113510 -44.055630 -50.740711 
105.336845 -59.741302 -36.743652 
-16.432978 92.804047 -84.400002 
-103.616150 -51.559566 50.261696 
-62.732071 -27.730064 -106.713608 
-96.854675 -64.441368 -50.031250 
6.123798 90.917351 -87.133240 
68.125671 96.103752 42.882023 
-47.012474 111.374748 -38.152828 
-19.369148 0.819878 124.847878 
94.666573 46.052525 -68.619370 
120.256828 26.664743 23.592373 
-83.887558 6.881892 -94.580200 
-70.614174 -105.478943 1.447953 
-115.730019 -51.498161 -3.871867 
-19.799910 16.324245 124.064751 
-20.162254 -46.189537 116.711288 
-49.115574 -8.240402 -117.767349 
88.936447 4.168211 -88.849678 
43.977310 62.050476 99.950607 
19.021183 97.544327 76.368080 
-102.963921 72.234848 -7.975104 
109.941895 10.611776 -61.944962 
60.401562 -38.422874 103.626114 
-70.315018 -91.636353 50.699448 
-86.715508 -14.572185 -90.676285 
119.598358 -36.461166 -19.019289 
108.225990 64.015884 12.073448 
-92.625458 22.559898 82.287437 
85.189911 -76.479439 -53.025246 
-1.885023 116.577316 46.313194 
-21.036146 87.305557 -88.849991 
-13.116829 52.739777 -115.093910 
69.562958 -4.105810 104.700806 
63.247601 102.228836 34.628727 
-53.128941 -14.674834 -115.286545 
-103.208153 13.400106 71.082214 
63.690678 -108.827011 -8.653448 
-117.805397 -30.324406 -35.220463 
-4.368538 -11.964607 -126.056007 
-0.505971 45.412941 -118.773483 
56.185360 -27.714792 -109.976982 
104.120888 45.148373 -53.085476 
39.925381 -96.788223 -71.270889 
91.619820 55.541725 65.459961 
-64.527390 -85.982346 66.634949 
91.753143 -65.129791 -56.307823 
-11.918236 124.740204 7.927812 
111.466011 44.403252 36.175743 
-64.229523 26.159430 105.015976 
5.374725 51.075119 -116.609245 
27.636696 -91.486511 82.396210 
-63.908295 93.685753 53.417671 
64.479988 107.380882 1.152988 
106.593788 -67.158150 -7.218858 
52.222939 75.820496 85.415314 
-13.684986 60.180687 109.713799 
-73.560143 22.009634 -100.969467 
-32.786583 74.896500 95.474686 
-61.574661 44.062607 100.624939 
55.353561 -108.192383 35.085709 
94.923645 -46.931656 67.365791 
108.714340 58.837955 21.641100 
-61.610008 75.076370 -80.822937 
-4.455307 125.601311 -3.489042 
67.036407 105.350662 15.095792 
-66.669586 55.709770 90.828995 
31.439953 77.553223 -94.261406 
5.930326 120.942451 32.605923 
89.976555 86.163605 15.338870 
-88.772141 -12.065602 88.467285 
41.494667 -15.544242 118.209488 
10.885671 99.556786 74.572296 
61.862625 -109.860260 2.174926 
102.303833 -28.099464 -67.876205 
120.627357 35.316483 13.405638 
17.787815 123.436028 -16.064548 
53.615105 50.963219 -102.550011 
93.137154 -69.929855 -47.405262 
24.876209 48.401138 -114.983353 
-116.000572 49.907841 3.023445 
120.891556 34.363918 5.299099 
71.387878 101.367836 20.550470 
57.870872 -6.764471 -112.792854 
-43.648869 -78.084595 -89.899788 
-70.386635 9.648852 104.405045 
-57.762733 110.178970 -19.599831 
109.881561 -48.901005 36.649136 
96.897263 -8.620827 -79.884834 
26.734402 122.764984 4.591814 
95.745560 -37.439178 71.418526 
-25.515415 104.939323 64.658882 
-47.271057 -91.518753 72.758011 
53.152359 11.571344 -114.925941 
-24.221424 92.867783 -82.101837 
79.863533 81.194801 -51.722382 
80.439781 -94.018768 21.520428 
26.306967 -58.908897 108.522316 
11.479488 94.885254 81.013519 
76.347206 95.842300 -25.637211 
111.781708 -44.612659 -37.291332 
-70.491814 -83.484352 -64.705505 
15.316708 56.165054 -112.495056 
70.957901 86.915192 -55.413368 
88.900620 82.495895 30.983358 
-39.861900 117.546425 19.537968 
-0.136719 125.804108 -14.433230 
-4.576633 110.724464 -59.528122 
-88.689079 11.955640 -89.379181 
66.018768 30.874699 102.347504 
48.826744 112.159683 29.299587 
57.029469 106.536194 -34.759705 
90.994423 -12.943431 -86.314636 
97.937904 -73.940392 25.869602 
90.074341 -78.128342 40.955162 
66.738136 -49.163933 93.839996 
-8.794437 -99.598640 -77.481056 
39.619759 115.116577 29.299593 
50.146835 -60.635391 97.987030 
76.031219 -96.895370 -26.993187 
-121.151138 -1.567365 38.214050 
-49.492264 60.297089 -99.445564 
-113.870857 -8.446569 -55.554482 
10.664001 -122.662018 26.465885 
-47.699871 84.784027 -80.325943 
17.538876 -94.504852 -83.113464 
23.626696 -52.783333 112.623901 
-90.103333 3.772655 -88.691574 
-112.126129 58.361145 -0.089371 
23.224920 -124.320206 -13.793642 
-34.652138 -100.553207 67.935875 
-103.085205 72.075668 7.839303 
2.600266 -94.905655 83.754066 
-107.383995 34.869007 56.474632 
1.558101 -111.061691 60.411629 
-95.349762 -83.228416 4.271377 
-73.954056 -16.298925 -102.050354 
38.039928 94.595535 -73.626999 
13.167080 98.913094 -76.312042 
15.104494 -81.764778 94.739212 
40.390152 86.404205 -82.806564 
89.049339 63.830280 60.642105 
-75.282974 51.454708 86.671242 
96.868668 33.915863 71.466721 
-45.402672 -15.625070 -118.368027 
115.345039 6.945767 -50.156265 
31.546635 -116.731827 -40.176823 
117.009857 34.643562 -29.588364 
118.938148 -2.626426 41.316765 
45.288643 -112.735596 36.712887 
-117.658646 31.663256 -34.471687 
124.842117 -14.820987 -5.604387 
106.289619 -55.327385 39.365387 
-95.143463 -70.896187 -44.409466 
109.624969 -57.149597 -23.706043 
71.861771 9.078279 102.964302 
43.556988 15.871851 117.456612 
113.872269 -42.321472 32.372181 
6.060853 -115.395538 -51.025757 
-77.241119 63.081364 76.796196 
117.874458 43.153015 -14.905705 
-23.810701 80.993896 -93.618637 
-52.953678 -55.972359 99.880074 
31.038197 120.881058 -16.476429 
101.093231 -53.639355 -52.571636 
-98.266052 -71.038956 -37.147987 
6.735462 -113.274971 54.678967 
82.789108 10.650476 -94.044556 
0.892168 -62.158291 109.780487 
-40.864944 58.388916 -104.835739 
33.917015 -75.727776 -95.824326 
-85.261154 71.632515 58.950714 
-20.082693 73.986267 99.955688 
-17.826700 -124.989395 -14.129362 
-59.388710 -79.080482 78.678551 
-85.288200 18.811386 90.014435 
103.490921 61.559189 -37.631966 
22.263851 110.973358 54.465607 
91.341248 -35.608341 -79.038567 
60.216434 8.538077 -111.062538 
-51.100388 -84.430023 78.551682 
-63.337730 -90.859306 -62.358196 
-14.096994 -48.632713 -117.462051 
-101.378624 -43.879227 61.729465 
117.123917 -28.898060 -36.230591 
-1.984545 123.925735 21.496195 
70.742737 103.841064 -4.250709 
61.508965 60.942806 -91.383125 
1.747550 125.694717 9.140598 
87.126701 -90.564178 -11.535630 
31.237185 -48.159962 -113.411179 
-15.820858 -59.917576 110.120209 
-13.504989 -17.874779 -125.348427 
-13.219666 -35.225445 120.667450 
-7.862597 66.608017 106.220978 
-121.699738 -27.571695 -20.883480 
-95.035194 -54.551975 -65.420830 
50.774395 -27.529655 111.862862 
92.586540 -79.174278 30.900312 
63.695374 -43.761368 -100.164894 
-98.296509 77.647049 -15.940749 
14.747536 -125.219528 -14.400679 
-71.128456 -87.464691 -57.405468 
25.758541 -79.603287 -94.876297 
14.504663 37.335007 -120.480667 
-77.291199 71.862793 68.609970 
10.412073 79.359283 -97.321793 
-1.520578 -121.351791 -37.743431 
-125.444534 15.888414 -3.936668 
116.383438 -38.173462 -30.269798 
6.486227 -121.798553 -34.291061 
121.670074 -19.948257 -24.946365 
-91.164864 28.994858 -83.453125 
88.163193 -85.014740 27.795732 
-15.809729 33.596519 120.623383 
60.437279 -98.054008 -51.072472 
100.796906 6.891397 73.766556 
-44.264290 117.475426 1.166175 
-54.073372 -104.635788 46.237274 
-121.414780 5.220569 -37.843113 
21.004585 97.692703 -76.667511 
8.250517 -24.822842 -125.039032 
-53.477291 85.739212 -75.072571 
53.760883 -79.353539 -83.053703 
58.363743 -110.381752 19.175636 
-106.163147 -37.700233 -58.367996 
-121.170799 11.024105 38.111847 
98.846268 76.326767 -10.238934 
-5.316895 -107.258781 66.135895 
-65.611694 -2.586268 -108.714622 
-36.571854 -83.007477 -89.182304 
46.939957 -62.939369 -99.299332 
46.612640 107.899567 44.957932 
-99.110909 77.241325 13.142239 
-56.253212 -113.596008 11.230439 
49.428326 -15.585081 115.793388 
65.295181 -12.110270 -107.573685 
72.181885 53.449039 -88.204849 
-15.879944 122.226013 -24.455496 
52.782452 46.708340 103.942017 
-24.456833 10.035362 124.031357 
81.213066 -6.168056 95.166565 
118.110779 27.573669 31.583332 
-22.313602 -14.665451 -125.011185 
-39.261147 112.812157 -41.578781 
105.601814 -44.560215 50.445843 
-99.718262 -72.882301 25.541105 
53.683342 -70.948288 -89.839104 
-124.471725 0.314394 20.946980 
90.777054 -87.105957 8.744041 
91.178444 31.306324 80.021111 
45.857536 -23.127102 -116.773270 
-109.953682 -13.492162 62.355812 
18.578360 123.824623 -1.278582 
20.949097 -97.090111 77.800140 
-79.402756 92.834312 -29.839455 
26.231930 105.184914 63.618504 
58.688519 -103.642654 41.491955 
-100.789780 -5.674171 -76.088409 
-3.906223 -2.460794 -126.656616 
-15.839405 -94.581062 -83.400970 
53.083801 -106.141884 -44.398308 
-16.514542 119.069565 37.409657 
88.101921 18.258148 -87.714661 
-47.401207 -57.378479 -103.228111 
52.424431 -66.601952 92.611504 
-56.908012 -47.542950 102.451271 
13.088502 103.651711 -69.772484 
-108.316086 -45.734295 45.789963 
-28.935467 -105.111221 64.320297 
-5.318458 -94.722328 83.644157 
-100.857994 36.623749 -67.252808 
-40.028282 64.833054 100.161156 
-91.011139 74.339676 -45.763145 
29.755428 77.225647 93.977539 
-30.434759 83.074524 -89.937332 
87.718735 85.109055 -26.405876 
63.413818 101.617706 -38.120148 
-13.737116 124.530327 -1.482450 
-26.525274 -85.213051 89.021561 
-83.319771 52.355137 -79.228012 
-126.000000 9.580620 1.069322 
115.709503 -49.060291 13.562263 
-92.071114 -72.974632 46.018517 
-72.661324 96.038101 -38.410259 
104.120712 27.356575 64.482849 
-97.256004 15.575760 -78.937210 
-38.583229 -22.828918 118.274887 
122.001366 -29.592903 7.159931 
56.794998 8.229280 112.066704 
111.242874 -59.106445 -6.920693 
-62.827286 -2.834021 109.409470 
-114.854942 -17.214937 -51.088257 
-8.914886 119.091690 39.600277 
34.525650 38.907822 -116.124725 
-118.759125 24.396935 35.356071 
109.572296 52.823486 -30.688696 
-17.861935 97.620636 -77.538879 
-82.289803 28.108868 90.752357 
114.161972 -45.393082 -26.653687 
120.063339 4.453633 -39.670616 
-124.751274 8.971110 19.493401 
4.260812 112.413780 54.553646 
-3.303254 82.426437 -95.278008 
78.476173 74.276825 64.012474 
41.811546 117.848770 13.421947 
-108.045807 8.729873 -66.564873 
-65.655266 -45.690151 97.466202 
-78.926666 -89.872498 -41.729153 
-116.407387 -39.960907 -31.446501 
-39.039108 109.088257 -49.391617 
97.602798 -21.313187 75.208893 
-11.039295 -7.464201 -126.006721 
-87.561028 -74.544495 -53.187511 
-102.703049 71.106552 -17.998760 
19.856203 -43.438805 117.404060 
12.999129 -124.938515 15.433563 
-57.643139 20.276222 -111.323807 
99.319244 35.691978 -68.361168 
-67.663345 35.648106 -101.237724 
-60.956985 47.892319 -100.087372 
45.221313 -33.664909 112.834373 
-18.535637 12.251873 -125.306900 
119.721031 -27.210833 -27.434816 
-105.182953 -70.322388 -8.154726 
-31.777161 -19.072308 120.757683 
-50.251778 16.540977 115.427528 
60.549404 -74.198761 -82.870041 
-72.890488 103.192337 3.658513 
-101.513779 4.801771 -75.138168 
65.063271 -92.408760 55.291969 
-59.945786 -97.628349 -53.341293 
-84.418900 -84.697357 41.197369 
-102.160057 30.723026 67.431824 
-19.639061 55.359047 111.394836 
20.036757 103.075996 68.634613 
-95.579056 39.536949 -72.316681 
-114.903717 42.800308 29.819614 
101.774101 71.485115 -16.807623 
56.413692 -35.580887 -107.538239 
51.093979 102.620644 -51.148636 
-26.459358 -27.952705 -121.352089 
29.794895 97.015945 -73.876877 
-94.224655 -79.783844 26.696285 
-27.789827 10.484426 -124.101242 
-0.257179 6.789752 -126.477661 
-27.196163 120.265694 26.056370 
-96.653397 -51.196632 64.227036 
49.768303 43.097885 -107.786407 
20.427399 106.404228 -65.025528 
27.029112 21.596195 121.108345 
122.335800 24.859879 14.920138 
-123.971085 20.444370 -16.990934 
-30.515450 92.724289 78.655838 
-14.438160 -103.461395 70.269920 
113.546898 -15.909973 51.380730 
-70.046684 -6.399744 105.015060 
83.014183 89.841141 25.080011 
-56.944916 89.005951 -68.618912 
-70.835106 32.417965 98.769577 
108.097488 -35.133339 -54.418861 
-55.823559 -112.181236 19.050995 
-75.751808 -87.132835 -51.050133 
-85.714874 4.868406 91.849075 
-10.600714 13.421052 125.052292 
-125.463028 -7.187642 15.792253 
-34.034672 -57.559013 -108.050369 
83.812912 -90.761650 -23.819586 
15.715275 107.665306 62.740791 
-7.724904 -124.701584 20.325659 
86.295593 -1.166777 90.351555 
124.405792 16.089924 -5.723954 
111.176865 58.250469 -1.759510 
40.995209 -104.118530 58.522423 
15.627522 74.489799 100.495987 
69.498009 -100.442017 -32.271553 
125.000000 -5.212978 -8.559056 
-109.193115 52.526821 -36.107208 
43.924416 112.036133 37.321671 
-90.900520 -69.362083 52.998802 
-19.626328 -57.528961 -111.698578 
23.571407 -62.061455 -108.297493 
65.221413 -66.673996 -85.978302 
-98.197624 0.380826 78.490608 
4.126042 -123.755630 -26.628601 
33.835247 58.686623 -106.668076 
-28.458450 -59.351269 107.881607 
66.939140 -38.644859 99.292381 
100.655731 37.921665 64.551636 
62.470810 108.516495 8.810398 
5.623646 -72.590698 -104.220634 
-15.258883 124.354736 -12.109107 
-0.941289 67.651451 -106.862099 
-75.693542 100.532928 15.396128 
-21.372566 -97.584709 -78.390594 
-95.070778 -60.268665 57.627068 
-122.633720 -31.504684 -6.129541 
-89.900757 -85.440590 -25.070908 
29.357306 -84.724884 -89.388458 
-98.584763 -24.168667 74.139969 
54.292347 68.512703 89.423981 
-37.340660 119.690987 4.132413 
32.525772 100.833099 66.719482 
47.865341 -1.342485 -118.003090 
42.088268 101.083084 62.046761 
104.694824 37.259590 57.793171 
-45.356998 113.907150 -28.837545 
-22.390680 123.531845 -8.448257 
-94.231621 83.696007 7.805181 
-15.427253 -125.285866 -4.305197 
103.726715 -62.837418 35.038021 
4.485747 125.390472 -8.014824 
-40.226196 -35.259811 115.274384 
33.722519 51.138386 -110.613945 
-56.343197 -95.720947 -61.091686 
13.029558 23.932974 123.526825 
108.095680 -16.995796 -63.491604 
36.848045 -9.334339 120.247269 
-2.469797 -29.899883 122.940308 
-114.694977 46.057976 -25.540659 
-94.347542 -44.329842 -71.690178 
72.711487 -12.735415 -103.062347 
61.005344 44.888744 -100.853294 
-115.639664 -29.276213 -43.184036 
-55.239044 74.109291 -86.725494 
-17.208515 -102.169128 -72.798065 
6.428668 55.952721 112.574226 
-90.496910 -82.612854 -32.941772 
73.497246 -24.599546 98.776794 
78.257675 44.689281 87.156448 
63.952301 -35.832752 -103.559647 
-83.219925 78.104652 52.448242 
-123.038963 28.397402 -8.168928 
-34.862595 -25.914650 -119.688606 
-8.245924 -55.610828 113.345810 
-50.542976 27.818037 112.241081 
-97.018265 -35.849255 72.032593 
110.592781 -27.115332 -52.938206 
-4.539526 -126.495605 12.473706 
-88.663589 35.959618 81.801147 
24.958046 13.014503 123.187195 
-51.682640 -116.101547 4.556793 
2.472182 31.192387 122.153252 
-70.740440 -101.243851 27.909645 
67.872528 -87.446388 -60.871452 
123.208069 -23.318050 1.646071 
-3.522484 -76.397041 -101.487816 
49.629673 -85.454887 -78.655617 
57.242214 108.535515 -26.453152 
112.392845 55.597427 -11.803589 
58.130646 -74.880531 83.361664 
1.444792 108.500053 -64.402298 
0.035830 -54.347351 114.569725 
26.398937 56.575562 -110.195847 
59.467033 62.665272 90.308868 
-120.294220 23.383846 -31.869591 
36.835342 -112.687943 43.733898 
103.746567 -11.131777 -70.895134 
-56.627243 60.302132 -95.102837 
36.000443 15.206472 119.751656 
-125.045235 17.964758 5.176834 
-76.017563 97.843437 -23.837914 
115.871750 23.020632 42.167191 
-5.904804 -111.858063 57.825752 
18.280056 -26.416191 122.238838 
-29.663399 53.929222 109.856758 
-22.109228 -112.059784 -55.512581 
22.590099 121.376083 -23.659725 
-120.407143 -37.719025 -18.200569 
33.992260 -56.415058 -108.251640 
-11.330736 21.216139 124.253471 
46.303467 -116.096855 -20.481726 
-11.029262 113.405571 -52.398571 
-63.964115 -108.790237 14.602196 
-118.482765 -22.117077 -40.720734 
-23.343119 -120.826294 31.211452 
-1.934447 105.019859 68.453270 
38.995651 -64.365868 -102.291992 
123.515945 20.717072 6.225911 
14.515342 -114.401436 -51.609970 
34.773972 -87.717484 84.267609 
98.297325 77.047264 2.825872 
67.930954 -61.384510 86.826782 
86.003708 -37.062241 -84.825150 
77.398804 -91.683113 37.960178 
8.480282 -99.860741 -76.945236 
7.400569 -119.478043 -41.985588 
32.324593 -96.569016 -74.752563 
69.449112 12.512409 -104.931267 
6.678287 122.754074 24.506283 
40.250149 -114.394264 -37.671455 
-34.718594 107.806519 53.609550 
119.775444 14.709629 37.291752 
29.316471 -11.074253 122.422394 
64.149284 37.567699 -102.577499 
-52.328224 -29.611813 111.081619 
40.013416 -116.980209 25.305597 
-75.888618 53.924553 -86.018372 
99.432579 56.389305 -52.688332 
-22.093321 4.926271 -125.323341 
-70.291435 -37.432407 -98.770233 
41.013874 -119.195564 7.713531 
-49.582817 107.504578 44.046741 
57.747490 -59.686905 -94.954628 
8.105065 81.613731 94.635475 
66.834343 -100.351578 37.637127 
83.382408 30.917198 87.959030 
19.610334 -10.788274 124.425995 
-68.718307 -16.780472 104.434555 
34.103203 120.406975 0.484061 
-70.277206 -47.907726 -93.663513 
83.072983 75.615860 -56.411953 
80.474976 -96.865799 -1.593308 
-69.138672 -103.701385 -24.179424 
8.724474 105.335281 66.879303 
109.468842 8.241404 61.977070 
75.809898 -72.551208 69.393394 
19.430410 23.075384 -123.554276 
28.939703 -117.199837 39.973850 
58.892036 107.247131 24.950808 
-101.677620 -73.229126 17.605890 
-79.684563 -98.561996 3.848724 
33.839634 120.481339 13.046015 
-0.106842 49.885498 116.324753 
74.770470 64.672073 77.045013 
-30.283308 -8.120356 -123.702225 
-110.117355 -36.727119 50.113739 
75.801514 80.490440 -59.043339 
-40.261627 -95.228180 72.608917 
-63.666676 60.056721 -91.199219 
-75.656723 -29.598049 96.064354 
61.061394 -103.485970 -40.089577 
-48.578941 115.694595 -15.844639 
-8.326917 -88.910896 -89.730759 
-125.463058 -15.343687 14.394766 
-35.151722 53.190979 -109.353989 
35.803265 90.640968 78.796547 
76.516975 -94.719360 30.441271 
-24.523655 -91.831665 83.657379 
-11.134207 -121.115578 -35.021896 
-95.322388 63.301041 51.956238 
-4.894064 -81.295563 96.058701 
-101.261337 -14.824216 -74.466492 
-55.751198 58.229919 96.160965 
-70.777122 -105.386848 12.177705 
-36.432487 -74.403053 95.132233 
125.000000 6.379972 -1.583311 
-11.229339 -71.828758 -104.503113 
-44.972015 111.696922 38.903969 
-112.723534 3.507344 57.057755 
-100.766472 -76.119011 -2.577806 
-49.961788 -23.384325 -114.953781 
-71.462769 -40.698421 95.556900 
71.193985 -50.719971 -90.983185 
-50.549080 39.384563 108.275223 
67.152374 23.068943 103.615036 
-120.715881 -9.993298 39.619888 
-124.874130 -19.854530 -7.993330 
-34.033127 17.073483 120.265762 
83.922134 24.632881 -90.303123 
74.190872 18.837616 99.233902 
-58.719852 -109.553131 -25.233452 
7.481917 31.574547 -122.799568 
-80.324692 94.106659 21.427290 
89.909012 79.208740 -38.868320 
37.794434 -17.964949 -119.973984 
-42.142845 -88.094887 80.473579 
88.935349 -13.739317 86.955559 
50.297600 97.630417 -61.316231 
60.577515 -59.219189 92.703629 
51.277561 103.178581 49.070549 
-76.974091 78.664040 60.901253 
-36.256348 37.689129 -116.406151 
-25.481903 18.261513 -123.380341 
-31.179083 -95.637726 -76.850929 
-83.222260 68.053116 -66.655785 
-61.875725 -40.657379 102.546112 
-121.220146 -38.855251 -10.235846 
80.457367 78.119255 55.145035 
-97.267746 16.407616 77.918625 
-69.307938 96.696381 41.512100 
-15.450209 -0.528237 -125.855545 
111.301338 -36.772408 45.554649 
108.163025 64.098541 -8.526580 
-91.291077 13.727829 85.571304 
-75.004463 -96.103256 33.889687 
-8.410101 92.677719 84.488045 
-73.524094 30.662817 -98.088409 
-45.343647 -29.019796 114.777931 
29.976698 42.732552 115.109688 
-50.558334 44.780136 -107.215134 
64.717026 18.719498 -106.867111 
-51.018208 -13.835976 115.637360 
-44.733524 -89.186272 -78.286690 
39.396141 -0.768829 -120.713234 
115.980812 47.769119 -2.236957 
-93.956528 -85.041183 -3.667608 
-54.705826 -2.076256 114.352974 
98.500847 -37.138611 -69.219170 
7.622622 75.212379 100.423836 
-10.055862 -31.723278 -122.927620 
-85.021202 -86.016312 -38.073402 
10.966094 -103.859138 70.201523 
14.479242 -125.329315 2.171947 
120.767708 4.926052 35.007904 
-34.209446 -120.401077 -20.313810 
-81.750122 95.605148 -6.175908 
39.518120 70.367607 -96.668976 
11.534700 -20.296429 124.366074 
-123.382050 26.613312 1.155098 
-17.471128 32.228691 -121.726662 
-17.819162 -33.761162 -121.490387 
26.640820 83.316139 -90.570580 
41.167934 53.309238 105.822662 
37.055382 35.987507 115.464905 
98.944595 -77.073608 13.348829 
120.537399 34.686916 -15.189269 
-21.284136 25.450745 -122.774887 
9.364646 -44.054260 -119.176239 
-16.340378 -25.602926 -123.949753 
-51.397446 -116.077461 -14.563785 
30.494858 90.375053 -82.350998 
7.327968 -57.592651 112.231651 
