-120.732361 5.915434 39.583939 
124.037231 -19.006372 5.574650 
104.489738 -31.477398 -64.106667 
-58.240417 87.589638 -69.390137 
-89.937302 -35.937672 -81.775406 
-70.429649 10.920771 104.185310 
-121.991531 -1.991898 33.844017 
12.871778 124.458694 -5.382305 
91.195732 85.709305 12.861250 
-72.259109 -81.516640 64.149078 
-100.416031 -68.148041 36.113804 
0.529055 2.033868 -126.835411 
48.475296 -14.520784 116.258438 
4.100389 36.851807 120.300842 
78.305931 77.894203 -59.703060 
-26.970968 -32.999485 118.980141 
-69.732956 104.977028 5.412090 
-24.307854 -23.356222 121.828850 
-43.178375 96.404579 -69.511032 
112.961670 5.841208 -55.356365 
34.779091 -56.360847 107.116135 
61.796402 -54.704269 94.667999 
119.327492 -32.458527 21.644615 
22.988148 119.526665 -32.974197 
24.832207 123.129753 0.034576 
-97.529068 78.682281 14.927691 
-66.772758 51.217854 93.010933 
-113.053368 20.699896 51.760448 
-69.673836 97.072914 40.376724 
111.517174 8.482497 57.507996 
20.428249 98.533028 74.803177 
22.323149 -62.421028 -108.330444 
37.895100 57.521996 104.913811 
-33.773445 -103.649971 64.217194 
-14.257862 121.206589 27.396141 
-9.505390 -99.100906 -78.066643 
-35.727825 -117.132233 32.297600 
79.307884 -10.750566 96.465668 
-54.113132 -67.548790 91.453888 
93.036415 -84.952209 -12.756224 
17.995138 22.994141 -123.885460 
-5.518084 123.045013 23.545877 
27.969816 58.285923 107.738724 
33.316719 118.104843 24.974234 
74.396797 2.456557 -102.624077 
66.093536 -69.535416 -82.719894 
53.007324 102.084793 49.173805 
88.946854 -55.832951 -69.962418 
107.037590 -43.228275 -49.586910 
-50.759342 112.217873 27.662523 
-79.987892 -16.022217 95.859421 
-57.694790 -58.101486 95.619804 
-16.301725 -124.649826 -16.335117 
-58.211269 -36.593433 105.786591 
79.538948 -97.752571 7.627668 
-45.824852 53.200897 104.321350 
93.295509 -74.796867 39.646355 
115.740631 23.505890 -43.280197 
42.603664 -117.779556 -18.182457 
83.656075 43.794350 -83.458794 
93.112221 -61.130146 -59.204414 
108.436577 29.118649 55.180191 
-47.892807 -14.158379 116.773590 
-88.437447 -90.269791 -3.965249 
-42.973724 -70.428490 95.111252 
-21.558010 -49.402435 -116.234840 
-91.365990 -23.756065 83.844223 
-45.801399 -61.527645 -101.575783 
119.987389 -23.359972 26.725508 
-25.065111 33.482487 119.056122 
110.326866 -47.505714 -38.103783 
-30.180214 40.255283 -117.344330 
123.971817 11.877152 -19.346561 
31.260912 8.439677 -123.000366 
58.550255 -10.262972 110.972656 
112.710419 -55.904526 9.745378 
0.482241 -35.020153 -122.402687 
-91.880768 68.489319 51.230476 
-101.544228 3.393671 74.098206 
72.872894 -45.934517 91.109055 
82.656357 35.822292 86.751099 
-33.296352 111.722771 46.690231 
115.609970 0.567784 48.578251 
19.965433 -72.849205 -102.553528 
50.375187 38.898819 107.889999 
88.064598 -5.265017 -89.675652 
-77.542397 44.558243 -89.626320 
-90.888321 -35.346966 79.993256 
-11.097885 -110.315186 60.206795 
41.525795 96.269661 68.963211 
10.515633 -58.858437 -112.264313 
62.967251 32.371754 103.728630 
86.157600 67.227737 -62.382797 
-80.860092 91.778709 -29.086847 
89.383217 -53.905769 70.109650 
63.873375 -108.723747 3.450451 
91.447136 58.049530 -64.650528 
59.648674 -19.627594 108.966171 
-19.128069 47.354584 116.130081 
-101.735008 45.214722 58.964130 
-44.439960 -23.123049 -117.571007 
-2.668852 -55.878277 113.491631 
90.995529 35.717316 -78.765503 
-54.618000 111.721680 -20.909025 
79.019493 -62.644554 74.830154 
-94.862480 6.495013 82.867996 
0.268898 -17.266945 -125.716980 
100.741982 62.005001 -43.177540 
116.991402 -31.142061 32.323872 
-96.818146 -5.185042 80.301186 
1.057068 -110.909508 60.831120 
89.223213 -73.023865 49.431190 
-50.794788 -44.275295 106.677910 
-34.667912 -118.702225 -27.899450 
-15.965565 59.985729 109.392998 
32.505177 41.809505 -115.593544 
13.306875 -111.636276 56.940811 
-87.578033 -67.517075 61.538727 
82.974800 89.980156 -24.404768 
-111.834198 58.998131 12.307964 
-5.620647 54.537914 113.617035 
-60.431923 -79.888634 76.862511 
-23.394598 122.872002 -16.765017 
-28.605511 -87.707039 -87.287781 
-7.209850 66.330170 -107.353500 
53.097992 64.305901 92.958405 
-68.395203 82.886993 65.229668 
-117.649010 46.311249 -13.128960 
-98.686150 60.823406 49.205688 
-19.796072 -68.997429 104.180038 
-114.751793 -18.842527 -50.518005 
-49.004948 57.184429 -101.818466 
66.276993 -56.803829 -91.437744 
-116.149132 49.583710 12.827694 
-116.484482 -49.852051 -12.733276 
111.533203 19.012394 53.485039 
23.375330 -91.325378 84.260223 
-4.281238 110.659058 -59.729404 
75.958771 100.144318 8.381283 
-103.496559 5.973888 -72.535759 
-84.941040 -92.442719 16.803324 
1.817066 125.686996 12.815961 
35.767349 -82.354340 88.694412 
91.006836 -14.316587 85.006790 
68.843330 13.565932 -105.139679 
78.849365 -76.042847 -63.756157 
112.893723 -46.366699 29.419048 
-17.842335 64.794830 -107.426186 
56.831635 91.220497 64.304077 
-5.110508 -124.410782 22.516453 
85.924866 -70.230553 59.159981 
11.185297 6.524571 -125.986580 
-60.573143 82.537102 72.795547 
17.012917 -103.201164 -71.221786 
-120.155083 36.171001 -20.114344 
44.457310 56.300743 -104.070213 
21.275974 121.584305 22.871712 
106.696655 -58.080700 -34.113228 
-32.629139 90.628342 -81.554520 
-82.875008 46.488453 83.189911 
90.832222 -27.980289 -83.101654 
-69.142067 41.252602 -97.672958 
44.835403 -66.060677 -98.206787 
117.279182 44.936310 12.640361 
-48.710052 61.197929 98.400017 
53.880333 79.286942 -81.808487 
68.432220 -15.748718 -105.162918 
-121.548401 36.148350 -5.378961 
-65.535767 -79.127853 -73.898506 
-98.083115 72.668762 29.730766 
-24.389404 -80.969833 -94.455215 
-72.763573 -24.422403 100.358772 
72.241127 -37.239803 95.366173 
97.047791 -79.687286 10.349465 
-80.095833 -90.416046 -38.098057 
70.698257 -82.919479 -64.181473 
-86.967545 -69.647339 -60.852135 
-126.000000 6.756311 -5.962379 
-103.513481 -39.626247 -62.105434 
-81.609108 -80.917206 -52.780342 
-7.679267 124.901093 14.422267 
-125.883888 -14.603786 12.664974 
67.681885 76.673775 71.607971 
-51.460190 86.762436 74.174049 
-90.899063 56.466942 -67.598885 
-96.074059 29.595873 -76.768486 
6.710993 -115.664307 -50.310425 
-86.378197 -14.882524 -90.921562 
-25.983940 48.957661 -114.607750 
-93.326065 80.264023 -26.910521 
113.046829 47.139866 -26.921701 
18.386021 -96.432053 -80.357681 
125.000000 12.111274 -4.717604 
25.447897 -124.063705 5.109278 
33.472481 -44.334946 -114.523384 
-94.356094 -71.647995 43.725174 
-28.187325 -5.445171 -124.499649 
23.093571 -39.599236 117.847488 
-64.093193 69.595261 -84.353714 
90.698410 24.098721 83.045486 
-57.243450 52.557728 -99.909744 
75.882126 96.580780 -24.756062 
62.764980 57.608856 -92.798859 
-80.438126 72.319420 65.186935 
0.594077 -126.593803 -15.554256 
-75.347229 96.776863 27.477417 
-45.488159 -52.207897 105.400269 
18.762709 48.774605 -116.304955 
-78.212891 -63.014587 76.322021 
-34.598228 -77.762146 93.319839 
-110.626137 -25.716599 -55.997601 
62.318008 55.366234 93.463989 
-92.139465 -76.113419 -42.763107 
-29.949942 9.323353 122.654198 
89.094917 37.155968 79.434807 
62.217793 -101.083878 -43.272556 
91.801788 84.337311 -16.520723 
54.824371 -111.011902 24.987541 
-24.589697 118.776657 35.602406 
-66.080399 -93.068832 54.057014 
-7.316037 -91.104492 -87.847519 
100.507637 -67.557922 33.885780 
-94.173080 32.057339 77.075966 
-2.525107 103.084869 -72.056427 
-80.213531 -64.131195 -74.355957 
-13.361097 -103.684990 70.091125 
65.990555 1.016734 -107.875320 
55.257034 0.163533 113.408768 
125.000000 -9.114035 5.581352 
104.363434 -35.483646 60.952690 
-80.287727 78.698730 -56.936737 
22.942415 13.769069 -124.607941 
-74.523659 -62.850452 -81.939919 
-96.390831 -15.726964 79.299942 
-43.778000 103.292198 -58.065422 
-87.429825 68.132217 -60.638294 
-18.594509 -77.583511 98.062119 
-114.744949 25.189734 -46.596836 
-74.626053 -84.989578 55.472725 
22.829643 105.576576 64.529404 
-56.785023 -112.188583 -18.694248 
-3.130804 -126.652130 -5.434505 
-4.546215 -105.122307 -70.275314 
-82.604462 80.046135 50.060966 
100.503510 -45.263939 60.273247 
98.497444 -29.755165 -72.441895 
28.487885 120.389961 -22.864998 
-6.651028 80.306503 -96.985085 
-101.130981 -75.640579 -10.788113 
-94.523499 -76.501038 34.731262 
-80.539841 -21.789989 -94.893013 
35.531281 -61.293823 -105.230827 
86.121201 -38.012024 -84.162880 
-16.943073 -69.921997 -105.136124 
-57.606857 109.935188 21.039993 
19.916735 -52.778549 -114.423149 
54.395378 103.604095 -45.600651 
82.694595 -53.338779 78.011154 
82.554001 2.016238 -94.896202 
74.483749 -67.440979 -76.953133 
-22.443518 -121.233093 -29.964861 
123.235809 21.170776 -14.785482 
-6.199170 -115.406876 -51.162758 
51.075775 73.811508 87.510300 
91.433945 79.759995 -31.695305 
76.932564 -79.410629 59.890137 
54.740803 112.885635 8.219503 
68.716667 -105.048019 16.979061 
69.123657 -83.102989 64.449203 
-93.341492 -81.375763 25.541946 
104.044159 69.504547 -2.676948 
28.798525 -30.984772 118.914185 
125.000000 1.176366 -13.507783 
-30.640100 -42.951225 115.631180 
54.548317 -93.002655 -66.013535 
-46.533928 24.408861 -116.333191 
-91.239067 78.972809 37.316097 
61.743668 -85.301743 -69.996391 
102.196075 71.930145 6.885666 
-117.663696 28.298176 -37.691887 
-25.215858 63.240978 105.795357 
-17.924175 71.873627 102.275261 
86.492523 57.780384 69.272110 
78.468277 54.564140 80.864822 
-110.470993 -13.947585 -62.046982 
-80.548538 18.061224 94.371590 
-93.071365 84.879753 8.667745 
45.783607 -50.824188 105.452454 
45.904598 0.219218 -118.630524 
64.824753 84.839737 65.592285 
-96.673065 -40.256386 70.093224 
-86.091019 91.492722 4.553030 
2.274539 -126.737556 5.257830 
87.906555 -44.664574 77.234192 
12.906115 109.916473 58.362110 
-14.548782 -62.009399 109.117554 
-69.257004 75.508286 72.199371 
-2.623970 11.990975 -126.044594 
-7.552524 -28.863476 -124.002602 
-7.445309 124.604271 -17.314138 
-12.753181 -115.524780 48.604050 
-36.112617 -0.287081 -122.083961 
13.216666 91.202316 85.276718 
-3.598025 25.661648 -124.942001 
-64.303200 9.253605 -109.036919 
5.043323 -81.006157 96.116661 
91.763779 13.049979 -85.379791 
14.620863 92.190758 -85.222443 
101.075485 -18.030859 71.602753 
112.899727 45.524101 28.449903 
-7.587346 6.782275 125.834892 
83.686859 -64.907547 -68.398697 
-117.380348 37.757000 -29.720266 
73.285866 69.020767 74.494141 
-80.275322 57.524967 77.847916 
-67.244759 -100.563187 38.005905 
12.664816 103.665802 68.705116 
-90.263138 64.308365 59.676075 
-18.362129 -124.344688 16.128849 
61.625938 84.781746 -69.595123 
-57.324661 111.990402 -3.465889 
-115.567131 5.127831 -51.853519 
-69.210403 -101.925735 28.564657 
-34.122356 120.720840 11.142448 
-126.000000 -3.956847 9.822791 
-118.405579 -34.583477 28.625607 
64.691757 -93.365723 53.893768 
-35.299900 -16.116318 120.259476 
-107.431000 5.503894 66.371811 
-46.712006 43.866856 108.213959 
43.172749 107.091766 48.978493 
-105.509171 -57.808479 -41.816124 
84.815269 89.958694 18.992277 
-18.649292 102.421188 -70.839706 
-100.232452 66.927979 37.463524 
3.911684 107.631371 -65.318130 
85.203110 91.386528 -13.765951 
0.132564 24.134241 124.194748 
-79.583229 68.135612 -70.768219 
52.265419 28.773897 110.533340 
-7.076712 114.335472 50.298317 
71.896523 83.698044 58.524494 
-40.694065 94.615555 71.910393 
0.699838 -120.679993 -40.563736 
56.463131 -15.770011 -112.405319 
122.491867 -26.085936 -14.920943 
-95.419014 -24.692196 -79.420326 
2.263030 125.637444 -9.090104 
-103.245064 36.133556 63.508915 
27.979355 -107.093353 60.937943 
-3.679847 -126.591125 12.823134 
-126.000000 -11.684533 1.875946 
-0.560209 -111.860054 -59.847691 
31.733341 115.709595 39.094563 
-121.330276 2.739439 -38.282608 
78.554581 27.590332 93.198227 
57.786049 81.957268 74.792702 
90.815346 -46.735886 -73.643410 
-24.177452 80.172577 -94.237503 
-56.503201 51.761108 99.909805 
50.871666 100.541306 -55.211716 
115.409912 -39.365776 -32.347008 
-79.586937 -6.117321 97.654480 
95.924919 -67.207993 45.193050 
-63.807144 104.545486 28.244278 
49.206177 -111.886826 34.615696 
27.533670 78.314766 -94.732208 
-29.145464 -70.533707 101.189529 
42.811493 32.633430 113.977554 
114.672821 37.473091 35.655746 
-21.082531 92.690697 -83.640305 
-58.717808 103.967316 40.165520 
92.924812 -80.988625 -25.453854 
70.785042 61.050175 84.418777 
-96.196838 58.195213 -58.056438 
41.346989 -37.191948 -114.506813 
96.650780 38.207939 -70.321304 
105.062050 -8.242614 68.168556 
-88.143700 -56.778610 70.175140 
45.868538 110.698990 39.709362 
29.577496 99.036339 70.329483 
-47.564857 -94.365349 69.140770 
-26.649065 53.905365 110.847900 
10.956217 -22.749834 -125.108162 
-56.867619 19.014889 111.029968 
123.017281 1.675963 -24.310114 
95.669571 -2.194603 -81.496193 
-10.473139 -71.917824 103.457863 
-25.737484 -72.239204 -101.706589 
-30.664812 9.528453 -123.420654 
-120.334061 40.452950 11.518232 
-82.610245 -95.790306 -12.611862 
-68.720184 67.615845 81.161774 
1.348752 -47.797112 117.301765 
52.725197 97.651108 57.671585 
27.476431 -102.281670 -69.248093 
-5.054517 38.102947 -120.918930 
-73.712166 -19.745100 -101.478363 
26.317368 91.802628 81.217041 
-93.382141 -59.406227 61.852993 
-29.013554 43.742294 115.282455 
73.968109 -88.440788 49.036674 
65.258858 40.052528 -100.393120 
-79.770264 65.454979 71.905159 
-101.642334 -44.408813 60.711754 
31.039211 113.945900 -44.082062 
49.764908 110.113564 -37.684753 
89.834755 -81.766090 -34.765388 
10.270834 79.968788 95.972908 
107.478371 -65.997147 -7.366562 
117.953407 -28.444847 -33.338787 
-29.937103 21.743034 120.545280 
27.155569 122.210144 14.972728 
2.745390 121.568863 30.953157 
35.459599 103.743515 -61.875343 
61.602371 102.607117 -38.579071 
-68.131935 -27.774752 -103.696198 
29.364849 -107.966797 -59.362125 
-93.910484 -84.304260 15.270603 
-68.455383 -97.706352 -43.467468 
-78.114349 -96.060150 -25.801010 
-62.754604 -64.320343 88.550438 
14.823475 -59.238144 110.411751 
9.906159 123.803032 18.011532 
110.301483 -1.808135 -61.160397 
10.903741 -34.997086 -121.848129 
-122.037949 15.223018 30.011765 
-89.316635 44.214790 76.436333 
-45.841492 -77.193512 88.513565 
-41.725494 -109.788605 -47.959740 
-69.674843 49.646046 -92.920753 
55.736195 -93.336807 63.741531 
-106.255844 -62.501698 30.435324 
-111.854332 -45.813950 -39.047348 
-74.288513 -36.573513 94.662262 
106.015549 -66.208298 -18.646175 
44.583393 -12.532796 -118.596886 
101.187897 67.008987 -31.233025 
-34.195240 -91.524193 80.040413 
69.874702 -54.939037 88.645065 
24.992165 44.543159 115.893913 
-83.409019 -95.033554 5.471349 
-100.629944 -60.011723 48.086693 
-33.906910 -65.432205 -103.938446 
3.962636 89.744865 87.487617 
11.799876 -120.769470 -36.908348 
-21.943359 123.583450 -0.705694 
-12.933809 47.009949 -117.757744 
-81.207047 83.622421 -47.195908 
39.781036 -116.558594 -27.974865 
90.052216 -14.939569 -86.818436 
-77.606155 -99.089592 17.784182 
-77.071930 92.104477 -38.371735 
-17.575455 -92.522774 -85.647713 
-104.091698 25.784573 66.363586 
22.893801 82.472816 91.284912 
32.857990 66.364143 101.903496 
86.148331 -91.491051 3.257406 
118.432800 30.781799 27.201956 
-82.448631 8.251987 94.835419 
49.187904 -116.112175 15.256742 
-7.096498 71.400894 103.334671 
5.295329 -125.658653 16.164848 
-106.882278 41.080864 52.048225 
81.988571 -31.538956 -90.256653 
22.132502 -20.928427 122.653130 
93.273544 -81.887756 20.738773 
118.975166 -19.172081 36.735107 
-50.354530 109.604248 39.323074 
-123.121452 14.787094 -26.693155 
-47.479950 -115.403412 -23.650259 
14.821136 -69.111542 104.808365 
105.586853 52.680618 -43.298546 
98.909622 76.243614 -7.188180 
-89.393616 -60.015152 -67.328064 
52.458679 -114.569901 -16.196939 
108.689354 52.715069 -34.239559 
15.237104 -115.592331 48.138988 
78.316933 76.035614 61.878067 
119.302223 12.983327 -41.011192 
59.617577 92.774277 -59.914619 
30.521536 -69.959984 -101.994179 
-102.022858 -30.978062 67.760269 
-102.875000 -69.239799 -25.458504 
-50.596054 97.618408 -62.198082 
-46.957905 -62.136475 99.434738 
-72.473236 67.480911 -78.839546 
111.886505 19.437111 -53.730652 
44.659813 79.387238 -87.136627 
109.738274 44.003201 -42.515732 
67.288780 104.040039 -21.353697 
-79.790108 56.607079 -79.836670 
-77.864693 99.286079 3.177496 
60.577583 -64.902359 -89.842484 
8.729886 -73.734558 -103.410065 
35.924572 83.311447 -87.944199 
60.240047 69.842827 -86.101677 
15.674443 102.406998 -71.172340 
38.706333 -115.023743 36.281349 
-60.323334 110.295502 10.844826 
67.316208 -65.030426 84.883316 
-63.684677 106.182236 -21.925762 
33.581421 -121.248428 -15.500614 
-37.632175 33.546696 -117.392593 
120.905960 -1.163294 -35.289009 
-65.413345 -29.951929 103.739838 
61.498909 64.570511 87.864731 
-89.679817 88.092804 -4.040306 
-48.284813 -38.499725 -111.097900 
114.027252 52.031464 4.068010 
14.037891 28.981237 121.998924 
-70.408272 -57.604771 87.760910 
53.572395 61.884323 -95.467918 
7.252968 23.607441 -125.072464 
98.721962 -52.501923 -58.500881 
58.410362 -107.906349 -28.613987 
-2.590448 81.514893 95.085922 
117.491798 39.398529 21.741814 
14.354541 107.954498 -63.382618 
-79.004807 89.939789 38.650127 
-73.455994 100.026108 -24.169029 
-114.520981 38.088165 39.012196 
78.828003 -70.632004 68.320396 
-113.912071 -55.464581 -4.425294 
-58.550076 -85.591934 -72.745445 
-7.167459 -40.987682 -120.298401 
80.631973 14.101559 -95.239365 
3.765712 -73.944443 102.489700 
66.679527 -29.988235 102.419884 
-14.145660 116.785301 -44.618599 
-113.784874 -31.601608 44.873463 
43.485180 68.507805 95.135918 
-95.110603 81.718430 -16.240171 
14.630886 -80.892868 95.583290 
-25.547070 -124.161438 5.423949 
-23.746078 114.627258 46.616913 
97.993668 60.965389 48.390724 
48.395355 -104.866364 -51.993393 
-62.087605 -104.145210 -37.815941 
105.480141 43.604862 -51.655918 
-84.024002 -55.344700 -77.104012 
-82.133255 93.827385 -18.722374 
-56.911015 -92.691673 -65.386139 
23.124331 30.728275 -120.933693 
-45.410469 113.796616 -29.268236 
-124.643143 20.055645 -1.914269 
95.629410 33.970970 72.994064 
6.560588 -126.243004 -6.262051 
113.410110 -35.492279 41.609653 
102.903610 61.833138 37.965733 
-26.471832 -118.483391 39.735748 
14.447034 48.799561 115.992882 
-74.408646 32.903416 -96.528358 
120.993736 33.832554 12.667318 
106.674019 -59.180107 31.496094 
-103.785339 52.322365 48.412457 
-38.658760 42.696434 -113.129379 
80.258629 85.939468 42.189892 
-125.406876 14.692591 -15.340094 
12.549030 -106.583580 66.185837 
-7.707361 109.444893 60.754616 
18.961277 123.782082 -12.738173 
44.467640 0.680434 118.090355 
-75.474976 87.271408 48.562084 
100.106133 -71.943779 23.482685 
13.517061 -125.440338 0.976495 
-6.994054 87.616089 89.177650 
42.082993 76.456604 89.574844 
-6.147722 -67.803917 -107.146347 
21.740610 114.512291 46.988983 
42.241718 -118.802650 8.639912 
44.354160 65.721298 -97.954666 
13.122307 -40.518890 118.922081 
6.939046 114.846252 48.738312 
-4.581861 -101.103035 74.814285 
-74.461929 -35.481247 -95.997505 
107.084511 17.819355 63.466640 
77.113419 -96.767349 22.711662 
117.536652 -13.219647 44.159054 
-58.935501 -104.017410 41.739132 
-9.536968 -81.491257 -96.372894 
98.909943 -77.243210 -13.428814 
-63.781639 108.340805 -11.036956 
14.177139 38.732193 119.116486 
114.722542 34.943417 -38.863945 
55.279724 -98.468491 54.930798 
113.628738 -25.312187 46.481033 
-14.830816 83.027153 92.704887 
-56.425827 101.005409 -49.469715 
108.818024 -64.238846 5.994956 
-1.765199 -115.405579 50.871117 
50.262642 -23.475805 113.199699 
-38.658363 114.170837 -38.097298 
-31.242105 95.272491 74.985985 
-27.324593 -40.734959 -117.979866 
-45.844048 -85.554253 -81.866951 
-74.221840 76.950211 -67.104164 
34.128036 116.198822 -34.303696 
120.111099 -38.418358 13.786222 
36.141323 -98.229370 -70.957870 
18.078032 -90.128479 -87.751358 
81.415695 80.166962 50.220299 
-117.654434 -36.851665 -30.089699 
71.781502 -91.585373 -48.130981 
20.623556 21.287241 122.648964 
87.360321 49.764366 74.686302 
-66.487244 -57.621048 -91.504326 
60.002850 -85.465309 70.147232 
-53.265732 -2.067145 115.229553 
-102.956619 -73.244431 6.927453 
-107.533234 -60.193462 -31.176037 
36.514042 25.945770 117.828125 
53.782127 53.685226 -100.685074 
-39.363068 113.577271 38.854889 
111.747498 -58.005440 -3.934528 
57.209888 -75.295944 -84.776024 
-55.916496 -61.314262 -95.710670 
-12.569910 96.191254 -80.227203 
-25.383583 -118.746567 -40.654385 
-55.982208 41.642433 104.743492 
69.168533 75.462692 -72.400383 
62.668938 -107.759094 -19.891945 
-47.506706 116.252457 13.906049 
-35.346298 69.394943 98.867401 
-90.398926 -88.411545 -13.169570 
-80.258415 30.431004 91.616989 
7.136669 124.111015 -18.267960 
-114.196648 -31.890945 -44.969765 
-120.159081 -41.001671 -15.534421 
93.924736 47.152203 68.038239 
51.686081 11.621639 -115.797195 
67.104950 -31.261747 -102.816391 
-45.419540 68.089630 -96.033310 
33.467541 67.371750 -101.841072 
-90.182693 37.192345 -80.307243 
117.421371 -45.626091 0.579087 
66.900848 28.265066 -103.469238 
113.327362 -11.491011 53.558487 
22.142994 -103.207764 69.247849 
-65.445724 -50.656834 94.984703 
-115.522659 -20.703346 46.747787 
68.715286 -105.987015 -8.438907 
-103.800301 70.934212 -14.551664 
37.574512 96.070953 -71.871864 
74.750984 18.509842 98.814049 
24.276184 -44.121216 -117.451904 
-68.671295 -15.135062 104.707626 
82.796585 -81.586693 47.342506 
35.588013 50.117859 -110.501030 
81.925484 -41.822067 85.527893 
-107.844803 -33.616661 56.933102 
-45.941101 107.273468 -48.392113 
-107.122406 -56.413174 38.471542 
103.105255 -71.736862 -0.835259 
111.759552 31.841293 -47.617249 
105.260971 -24.638304 64.144020 
-73.544334 -103.822769 -12.435218 
45.348145 18.934319 116.490097 
44.539330 44.342815 -109.471756 
15.945879 82.655029 -93.916641 
94.257980 57.272541 59.955742 
34.840900 -89.666641 81.794899 
89.447174 -77.561409 -43.805820 
45.588772 -82.708511 -84.793350 
-100.938522 -32.256638 -69.884171 
-31.129204 113.843819 -45.032700 
-87.735550 87.216446 -23.073248 
-111.652863 37.230278 -46.638344 
-57.063660 -7.015398 -113.848961 
-91.749046 52.778942 68.682343 
-115.549805 -3.263104 50.891319 
98.158905 9.823364 -78.183212 
89.451202 44.903206 -75.670349 
-11.615253 120.939499 -32.248856 
71.985542 90.167496 47.530319 
25.936319 99.431595 -72.313293 
-64.024651 80.158554 -73.213219 
-8.264838 56.611038 -113.142792 
118.759018 41.707596 3.569202 
35.374130 120.000275 3.113614 
-110.496559 -3.729211 61.916611 
-36.058315 61.192852 103.948898 
-117.523285 46.585575 0.419731 
-123.621140 3.950262 25.370079 
36.698586 -65.219902 101.736671 
-17.119068 -122.451385 26.462618 
92.551056 10.685188 84.103828 
-107.281235 -24.662331 62.650116 
-68.732826 -105.126907 18.068356 
-36.461441 -115.652115 -39.361046 
45.884628 113.773888 26.198349 
-105.599335 30.236637 -64.036621 
44.368530 -74.067162 91.282677 
19.019384 116.870255 -43.468647 
43.687550 105.964844 -51.855118 
-125.343948 16.411453 7.095091 
-105.475372 62.737572 29.932093 
9.104760 -81.495903 -96.607399 
71.480255 -9.927197 103.240486 
-62.433498 32.236130 -105.640938 
122.473572 -3.062593 26.137451 
18.377676 -30.788662 121.016479 
-65.072464 -108.540733 -14.298910 
-35.038963 106.950058 55.171871 
-30.789190 -113.487114 47.008442 
81.682159 -84.969704 -44.369858 
-125.360580 7.218288 16.324991 
117.209442 2.031475 -46.088478 
49.617992 -89.261711 72.983940 
114.218163 -48.786095 -20.596624 
-55.640324 -113.942421 -2.016918 
17.826750 123.908134 8.393987 
-13.909256 124.510468 5.594256 
-8.633333 -119.266174 -42.333961 
-56.821404 108.098854 -30.323566 
-25.249489 -59.485138 -109.615540 
-91.961372 23.581442 82.876167 
-105.850739 -50.100143 -48.038776 
31.720308 -3.994559 122.153397 
103.937119 53.835926 44.609612 
32.626972 108.886047 -53.143265 
-124.642967 -6.230062 20.056578 
-101.662506 -20.336142 -72.504639 
70.353981 61.012192 -85.740196 
30.568771 -76.134148 95.621262 
-46.169250 -4.973227 -118.865845 
-77.612984 99.441589 13.245381 
-91.886826 -0.489871 -87.001945 
115.230049 -46.856522 19.637138 
4.714439 80.738510 -96.421036 
-70.599091 -11.261401 -105.182526 
-13.728243 -2.756492 125.452255 
87.679077 1.182519 89.040878 
-36.874332 119.300041 -16.490154 
-126.000000 -3.534075 -7.245868 
-39.921986 -43.307167 111.799347 
-53.257919 -107.854561 -42.068474 
86.639534 -90.960327 13.193377 
-86.907448 -88.284027 -24.504179 
42.597778 10.459381 -119.302475 
68.189972 -77.846275 -71.946396 
-50.219532 -48.080822 -106.269600 
-3.066105 125.761604 -1.097002 
-82.851341 -39.035313 86.602768 
19.915901 -124.702003 -9.199559 
18.668814 -119.653770 38.246231 
-83.038300 7.679274 -95.384766 
-111.898941 -18.196482 55.769901 
-125.463043 -6.241598 -16.792175 
-45.270279 -104.773987 -56.007568 
122.233185 -24.632645 15.940494 
22.869678 -117.722702 -43.091240 
-52.525673 -103.986069 49.151138 
-70.556030 -73.484604 74.309998 
-108.893593 -65.452171 10.383675 
-29.263981 -122.870567 14.866813 
31.504389 110.824783 49.250107 
15.966735 69.201630 -104.972939 
71.896927 103.188690 -12.536628 
-73.864922 -97.189285 -34.369518 
32.394768 76.749084 93.664558 
31.510796 -100.524185 68.856804 
43.723427 33.611507 -114.267784 
-36.221394 35.966248 116.112312 
87.617355 80.275070 -41.613068 
103.578979 69.132797 -16.761063 
-23.615892 -106.387077 -65.865059 
109.645088 -45.615517 41.158009 
104.233788 46.106823 50.871525 
-41.907806 5.143159 119.158684 
-6.714388 -84.931175 92.684258 
-25.598747 -107.872360 61.596203 
-60.013153 68.611267 86.666367 
-9.833617 43.338524 118.117943 
-99.701408 76.516891 5.393481 
-35.830444 -35.568954 -117.532379 
42.367878 87.048195 -80.622307 
83.504387 58.783962 -73.112503 
-56.871140 -20.904438 110.857559 
33.778076 105.254143 58.981350 
-82.368889 89.667847 29.257217 
-124.048973 -24.145308 -3.831500 
-47.955456 110.881721 -39.023952 
96.111824 -71.597115 -39.778389 
78.326691 -27.891945 93.660088 
-57.412277 -99.691368 -52.316078 
-77.261124 14.356497 -99.399780 
-90.302826 83.814049 24.986176 
-94.944435 66.787666 -48.826332 
73.533371 -23.358271 -100.038391 
48.038536 -74.755608 -89.948593 
0.447289 115.156792 -50.324104 
43.858280 -23.808777 -117.359955 
78.257820 9.673004 97.553436 
89.375641 71.849236 49.269459 
72.225616 -104.002907 3.703146 
5.341497 52.095062 114.982529 
64.475945 90.690918 57.364365 
-45.215134 -88.221542 78.156815 
17.658997 39.011925 -119.694176 
-19.548233 -43.979626 117.442780 
25.521173 -114.669403 47.313736 
-88.178154 12.916810 88.489731 
-48.584152 -115.953430 18.253677 
-5.993523 102.544968 71.401520 
-113.001564 -5.632448 -57.451138 
-28.358879 122.565163 -8.592858 
-47.689922 -101.994820 58.183804 
13.757737 -90.838409 86.442055 
63.926388 107.693771 8.928203 
90.654327 81.399673 28.956247 
32.691948 -119.191246 26.035812 
-123.892502 -24.958996 7.872552 
84.331604 -93.212166 -11.452589 
51.644840 -115.635529 5.163105 
71.204872 36.050003 96.251587 
93.320923 -78.587631 29.840015 
65.084747 -45.203110 97.233978 
-32.101479 -50.937912 -112.105614 
30.383255 90.649704 -82.034691 
-6.526039 -94.968697 83.130180 
38.096233 -104.119041 -61.509422 
121.821335 29.529079 -9.148456 
117.604141 27.866884 -32.993000 
-0.845653 74.719971 -102.338135 
-63.295662 -17.974251 -108.606552 
-53.172432 3.063293 -116.286346 
-80.368660 -46.737404 -86.840332 
-31.545376 -16.038042 -122.267319 
-120.685242 -32.287796 -21.321512 
-47.704262 48.321541 -106.791618 
35.207069 47.596207 110.859802 
58.611984 -111.697571 -8.895033 
-85.959373 -86.830490 32.286465 
124.487144 -10.618700 -16.666859 
34.660343 38.318306 115.356522 
38.390755 -76.460739 -93.086975 
40.144306 -10.215568 119.153564 
79.077393 -98.189850 -2.726349 
-57.270454 -79.508591 -81.046379 
81.368050 -54.894402 -79.028000 
-45.185028 -114.258591 31.081038 
-35.584999 -97.149994 72.036316 
58.697632 102.937439 40.999516 
110.908592 54.338078 20.749075 
73.926537 102.041519 -1.810313 
123.016960 -24.311825 -5.428901 
32.559772 -5.134950 -122.816643 
42.540718 -29.737675 115.483749 
-37.880413 52.303455 -108.943489 
104.197037 -0.457067 -70.303886 
109.431587 62.058365 8.587133 
108.184189 28.116419 -57.404091 
124.999992 -7.650284 -3.912001 
78.861496 -11.271749 -97.882202 
96.730293 23.958216 75.065773 
57.991982 33.212227 -107.249283 
98.962646 13.626763 75.048195 
72.479599 33.465076 -97.188454 
76.757118 -82.996857 -55.179932 
-15.790319 -36.793121 -120.951996 
53.813686 -47.816380 -104.369949 
-65.583786 -88.492241 -63.987465 
34.972443 -110.109360 -51.451073 
64.382637 95.983932 47.482086 
-32.789803 -93.068619 -79.573196 
-40.873791 116.808113 21.563723 
73.459106 94.152412 38.250198 
80.455208 81.174461 -50.865871 
108.716682 -20.621412 -60.312599 
14.739570 -125.299278 11.966015 
63.512272 96.262856 -48.818626 
-98.961952 -3.136283 -78.487434 
45.488274 -82.013489 84.461105 
90.781815 24.058487 -83.983917 
-15.176467 -56.150528 -113.286583 
-123.080505 18.919989 20.436275 
-14.712096 33.376236 120.787720 
123.347260 21.594276 -2.012175 
105.654373 65.922668 16.992685 
-30.489712 -100.068268 -71.303345 
118.666077 -36.897797 -22.339457 
105.268227 -45.322105 50.460308 
-52.004322 101.874329 51.618145 
-49.680283 13.795837 116.176552 
18.797546 66.977554 104.774689 
-104.905121 -3.365566 -70.687027 
-20.300621 10.985086 124.380676 
-84.208344 46.140728 -82.758453 
-16.105146 108.002182 -63.180977 
-109.982407 60.651642 -18.283379 
-103.663864 17.162071 -70.299103 
81.253349 95.128410 -4.981188 
66.069901 2.530434 106.827011 
108.733711 -15.517270 61.860435 
-121.317688 -30.979570 20.095539 
26.161377 105.249580 -64.561180 
-36.616989 117.252960 -26.389202 
78.935944 69.796242 -69.058632 
-68.943886 104.792603 15.673699 
-27.630779 90.501694 82.795860 
47.508595 116.117249 -13.873428 
-88.195328 -10.945781 89.210266 
-73.459579 -83.350647 -60.901615 
-28.026012 -122.119591 -21.585388 
-57.717464 -94.507782 60.898590 
-14.495937 -110.939606 -59.310955 
-93.509422 -66.464729 -53.347267 
2.934044 -93.883339 84.727036 
-111.794113 50.999382 -28.119169 
59.988918 106.280144 -29.278913 
-54.379551 13.640960 -114.455383 
-30.260309 66.224464 -104.176346 
-118.705429 -41.480984 19.073803 
113.616501 -12.802267 -53.731586 
53.752571 -69.789871 89.653114 
31.839169 -122.131462 12.791330 
125.000000 2.542672 -1.925763 
28.453257 14.622925 121.965195 
-24.958965 -114.059341 -50.575344 
71.896133 -69.365974 76.464417 
-88.609726 74.835121 -49.477455 
-57.502632 79.059784 -80.219048 
-60.781914 75.512955 80.069534 
45.434013 99.580048 -63.161045 
-17.976841 -27.076637 -123.272346 
-110.816772 55.345154 23.977928 
20.591934 -30.939880 -121.621918 
-94.271034 -82.488358 -20.059849 
-109.017105 -35.628120 -54.340279 
-126.000008 -12.979080 -9.733693 
-73.782021 23.028004 99.515968 
102.718575 29.286100 65.712646 
74.201157 -93.362877 40.466866 
124.468658 2.392264 15.763003 
67.944984 86.549446 -60.534008 
73.464500 89.689598 -47.033058 
82.057968 -92.846420 -22.410389 
18.298519 59.897499 -109.812515 
-44.903831 -114.039185 -33.849648 
41.369194 -94.705643 72.393738 
-106.880936 -68.093781 -13.456139 
-69.677315 92.235252 -49.959610 
-69.380234 84.863869 -62.776379 
28.735052 -23.356153 -121.534882 
100.652954 68.414902 28.064651 
-66.351151 41.604977 98.469879 
90.220406 71.641449 -49.144482 
109.297348 62.351238 -7.025102 
-15.597380 122.673401 -22.347282 
44.519390 -52.385605 -106.305809 
111.376762 -2.557645 57.814320 
-57.836624 -30.057209 -108.884140 
82.267174 25.351990 -91.649689 
125.000000 10.893278 7.200321 
-102.721619 42.323349 -60.438133 
60.762260 11.824650 -110.323570 
-11.636626 -25.884850 123.657616 
38.134438 -103.229782 62.247421 
118.277626 -7.844775 -43.757900 
-64.565605 -108.897705 -4.704998 
-36.953163 74.390419 -95.105316 
16.944147 -113.976830 -52.101707 
121.986435 28.670517 4.540216 
-21.648489 -112.909637 52.730335 
-117.586304 -4.132031 -47.448074 
-79.178650 -75.352180 -65.197624 
53.738789 113.451981 -2.763136 
-84.975533 -5.071121 -93.549500 
45.891743 116.326263 14.421612 
-44.422989 -93.165833 -73.760681 
121.845840 12.701954 -30.005339 
-120.442108 -11.972002 -41.217209 
4.139918 65.274078 -108.115891 
-123.811722 24.379074 -10.980779 
67.753098 -101.089050 33.094513 
-97.426208 14.562598 78.188210 
98.087494 -41.976585 -67.133438 
-99.178818 36.966869 -69.177780 
96.746284 76.462059 20.126209 
65.706688 -102.182350 -33.713142 
-33.313019 83.525696 -88.744629 
-61.504330 92.381096 -59.783943 
-101.766548 71.458267 19.600153 
114.244919 -33.501492 -41.782333 
32.698460 -109.690895 52.485886 
47.126068 -108.922585 44.536068 
99.767113 45.668720 60.518246 
-1.840726 -7.654298 -126.410118 
70.893219 -20.296574 102.019867 
95.359062 71.054276 39.622627 
-102.903687 49.939476 -53.290588 
120.292084 1.898422 37.481186 
-113.125359 56.181053 -2.188805 
-69.176926 -90.717468 -54.888832 
-41.687881 -69.834885 -97.294678 
-118.804649 -9.029828 43.789875 
0.236971 63.487091 108.330711 
-114.925514 46.472652 23.693995 
70.834549 102.394295 17.994808 
-6.859632 89.196030 -88.880783 
-108.309555 47.385147 -44.446995 
65.609802 44.056679 97.127777 
-2.609983 48.142014 -117.846115 
-116.855537 15.603504 -47.002747 
111.700043 -57.053612 -15.818322 
-102.926376 58.066723 -46.019325 
56.929344 -106.312386 38.231323 
114.836258 50.266346 -5.739848 
83.775909 -17.461826 90.889656 
-11.446547 119.286606 38.373924 
48.045437 -41.802963 -109.439621 
-109.847153 63.200615 -8.636511 
-38.506660 -84.636871 86.094002 
35.801113 28.666920 -118.517609 
-11.544891 -121.708313 -31.824591 
-27.171192 -28.673313 -121.027634 
5.223128 -100.727478 75.316765 
-38.328049 102.123459 62.998840 
-59.610054 -52.482899 -99.113434 
-12.963402 19.188766 -125.237465 
-55.658356 -71.930328 -88.658478 
-112.589684 44.759178 -36.027470 
45.530983 -117.750092 -7.296524 
2.263590 -54.754036 -115.185844 
-21.744703 -92.821617 83.509377 
1.885154 -1.624231 126.713539 
-25.859314 82.886772 90.451736 
96.164413 79.846710 1.976226 
-109.664780 2.256871 -64.439972 
-44.110252 12.009897 -119.030655 
-73.417198 -72.425827 -73.689323 
-51.062206 -110.607079 37.897038 
39.420448 117.463417 -20.070112 
-51.140148 -116.275154 8.020473 
61.700832 -7.225960 -110.442444 
54.833637 -51.078354 101.399445 
65.078232 107.042747 -3.101318 
108.580376 61.222382 -19.034285 
28.421612 -94.277954 -79.399246 
8.900405 98.685005 76.054932 
20.172871 -10.895935 124.364105 
-88.281174 -80.236931 42.900539 
-4.748689 33.176174 121.561256 
95.544754 1.677113 80.660004 
36.303577 90.525597 78.738708 
34.732487 -114.410034 -42.768509 
-87.759239 0.350829 89.912300 
102.573380 27.063326 -67.664139 
2.174963 97.902397 -79.150124 
116.101761 11.420048 47.505249 
-9.202412 -11.413492 125.372429 
-113.979118 -49.204559 -25.425970 
117.529343 -45.390518 -10.914544 
54.851833 -61.514946 94.618942 
-15.566982 -87.941544 89.104721 
123.832474 19.042889 13.027197 
-118.282684 -26.409153 -37.514732 
-24.559414 58.013134 -110.078003 
22.004530 -0.369918 124.461014 
0.079195 -18.670687 124.923721 
19.553316 -2.356746 -125.494637 
-81.004898 -49.815609 83.702606 
9.972181 120.677345 -32.208775 
29.995737 -118.481918 -34.407547 
-26.200083 -124.088882 -8.625110 
11.240341 54.576843 -114.167679 
57.265827 48.005089 100.927307 
-13.047779 112.595192 -53.766300 
-94.752899 -10.887454 -83.808632 
-33.286713 120.988251 1.326819 
62.675678 -40.850052 -102.425964 
-99.073669 -65.453552 -44.684368 
86.213364 -70.288681 -59.478832 
-72.499390 -104.413391 1.057753 
-8.548216 -122.070305 31.512598 
-65.158592 90.780334 57.522881 
2.740592 -62.636978 109.414101 
101.297668 -68.502335 -29.245104 
51.815594 70.557892 -90.592224 
-95.489098 -83.045563 -6.691891 
-71.442406 59.498596 -86.481316 
35.543385 -120.946114 -0.567667 
-20.908123 -98.781601 -76.939819 
-83.678116 -31.954002 -89.576439 
-62.112572 -38.425137 -104.272911 
-50.974670 79.465767 83.381096 
29.175814 -52.994404 -111.584106 
-94.306572 45.924347 -70.476074 
96.974304 -28.080410 74.049805 
54.023281 -3.714427 -115.159744 
93.861946 63.696465 -53.258579 
-59.545216 21.277027 -109.987915 
103.859749 36.800320 -60.950478 
88.450790 65.632202 59.312096 
10.141288 -6.610878 -126.070801 
-39.857754 22.840158 117.745071 
-123.072510 -10.830729 -29.222950 
-98.546524 68.663528 -39.835960 
-38.686737 -119.741661 15.390642 
-97.440315 6.865149 -80.484589 
0.915349 -123.992813 -26.713787 
93.409065 -63.918442 54.093605 
110.322296 -55.559193 23.385345 
73.376633 67.388550 -77.135788 
96.825569 -54.831768 59.377014 
12.720924 -109.310577 -62.981033 
-27.776844 -120.940536 26.652466 
0.278565 -121.801071 35.389420 
4.861258 -35.676147 121.031265 
8.107391 -89.457558 -89.345932 
30.838917 -120.134026 -24.983412 
50.137486 -99.481812 -60.004364 
49.522987 25.333796 -113.845047 
55.848644 -41.786331 104.632294 
-54.442593 -16.659912 -114.195389 
-17.798042 -125.022446 -2.649024 
-121.679390 -36.467186 -4.237668 
-85.193207 73.297035 56.812565 
-12.800243 31.403866 -122.570816 
-109.227264 -61.494095 20.680233 
89.583687 -62.141518 63.176231 
-97.445244 17.806238 -78.079979 
41.972397 20.366768 -118.241211 
3.761791 108.966675 62.169277 
-122.221031 32.650635 3.678308 
-53.108528 29.383095 -111.453804 
119.824371 28.089283 -23.259735 
94.046906 -83.625931 0.323073 
73.165817 -60.152374 -84.388412 
-15.307945 -53.313026 113.995750 
120.018852 13.127316 37.820026 
-65.573029 -108.328285 6.441794 
2.868039 91.767342 -86.661270 
-34.609543 -79.814430 -92.533051 
99.986038 54.895779 -52.886600 
-103.047302 72.125420 -3.960676 
121.028381 -10.342107 33.652435 
27.191116 -82.581345 -91.868042 
52.402782 -85.968987 -76.056099 
-113.457497 -40.127861 40.262127 
75.436180 44.203262 89.644325 
44.431770 102.439034 57.686493 
74.041550 -51.157715 -88.609436 
-35.552334 116.877022 29.543020 
89.106812 -33.722607 81.795456 
77.746979 -91.823570 -37.711609 
31.862965 -33.411285 -118.655586 
-47.800865 29.208988 113.196579 
-58.495613 -107.549454 31.461708 
-101.629990 -19.335251 71.554535 
-41.337444 -7.604696 119.231750 
-76.724518 -88.746391 46.003891 
-22.058132 119.664246 -33.852951 
-25.827177 -0.637394 124.130310 
72.265450 -102.242630 -20.222670 
-48.507164 96.183502 65.042961 
-12.553845 -3.670197 -126.042511 
-33.707672 -52.073792 109.912567 
-57.065968 61.790157 -93.857330 
57.760311 106.503815 30.968945 
-101.467529 -70.473282 25.848608 
68.015862 100.611618 -31.711433 
8.641908 -26.011415 123.765144 
-48.689888 -24.849781 114.322815 
-9.137045 -125.984772 2.505941 
109.149536 -32.136238 52.703117 
103.321449 -71.453094 11.307207 
106.069878 -65.269287 20.094070 
6.471826 41.921124 -119.683945 
-98.659424 72.448318 -28.873230 
-123.504608 25.976028 11.587315 
-116.006104 7.610017 49.895767 
119.978683 39.046501 -8.353926 
-41.879349 90.389236 -77.712692 
-65.438446 100.626122 -39.236233 
28.596426 122.169144 -13.365867 
1.346056 -95.648514 -83.893715 
-22.447861 -100.517044 73.083389 
15.853454 111.889572 -54.718086 
121.381721 -22.541119 -23.893425 
122.332291 7.121293 26.872112 
-96.293594 -41.201096 -70.942642 
-77.278595 -5.293847 -100.841339 
117.901505 -20.044773 -40.870632 
67.673477 12.986647 104.877365 
45.661140 -38.167240 111.026123 
102.038620 -60.332600 -44.376762 
-21.471251 1.772841 -125.407310 
-72.699257 7.455730 -104.302780 
-13.420835 95.853760 79.665550 
96.754105 23.201485 -76.504143 
48.644638 89.336754 72.501366 
-29.406565 98.633430 -72.353111 
-36.235588 -27.709757 118.033226 
-83.378143 91.858055 19.521847 
-123.331680 -21.840424 -18.726084 
-3.819397 96.639297 79.946159 
117.326195 23.422529 38.728775 
93.960876 48.958721 -67.952538 
-9.818859 -15.538439 -125.643692 
64.460907 -98.585068 44.215984 
-20.856136 -17.531570 -124.869720 
-122.859367 -30.331282 -11.511830 
57.494492 -29.122343 107.740921 
-38.424339 -59.460468 104.577408 
-96.968796 43.021828 67.615219 
-11.822803 7.645458 -125.927826 
-73.253372 -44.642670 -93.276047 
-23.048796 100.774193 71.174217 
119.173088 37.800507 -18.306812 
-76.082916 100.974083 -6.573117 
-8.267071 -124.307480 -21.687174 
-84.124207 -78.546257 52.071484 
-26.465742 75.172882 97.069046 
65.146988 -91.739700 -57.488121 
-103.942017 -48.485596 52.318241 
-64.808792 33.204453 103.012215 
48.803894 -113.057602 -30.803850 
101.859985 -54.803364 48.994308 
22.320700 118.667526 37.000507 
31.861130 -16.232216 120.863647 
75.398453 -96.879181 -28.758089 
-105.065979 64.175262 -28.412224 
61.761448 22.815083 106.766930 
-13.425810 124.566254 -9.475855 
-51.063446 115.299698 3.009126 
-115.835312 -51.268398 6.533635 
-65.169716 -3.127299 -108.983658 
-22.653812 -13.968073 124.033142 
85.363968 -88.766289 23.517899 
-34.896004 -121.473274 4.859907 
-26.246979 31.617329 -120.231010 
21.578114 -122.529190 -24.068935 
-42.578617 80.964897 -87.287216 
97.108780 -37.067909 69.918793 
-15.892469 105.599060 65.865906 
19.198463 55.872189 111.174858 
-114.171280 -53.033058 16.214874 
-89.901703 -47.159050 74.761169 
-108.250755 30.597378 57.144253 
25.824102 33.551769 118.656937 
-84.989189 32.146629 -88.000992 
-75.801384 41.864445 91.118835 
-44.198151 -33.744652 113.738617 
-58.257614 -73.974274 84.712753 
-40.942009 -113.437096 40.197731 
96.148178 -19.554808 -78.275818 
-15.344785 74.448547 -101.721367 
-92.323189 14.388117 -85.555954 
0.343404 12.112026 125.586792 
-78.148819 -73.462448 67.194107 
-103.759827 16.353968 69.619324 
62.461060 105.872055 22.489052 
57.361683 -98.572380 -53.681114 
54.215530 -80.407623 80.422501 
-43.270111 -107.773460 50.252232 
-5.665029 -118.895966 42.565048 
43.905014 -115.389587 26.651899 
-63.694439 -107.046227 -23.940657 
-64.284546 -68.020096 -86.227249 
45.376999 116.799362 3.225657 
-48.562592 -117.099968 -12.591216 
79.122414 36.876476 -90.352654 
58.621700 75.116669 81.607826 
9.931532 4.974106 125.699730 
-7.788959 -42.564301 118.742958 
34.849335 -85.737671 -86.979454 
-73.661865 56.848461 85.145660 
-44.372440 -78.585297 -89.165443 
-112.265511 30.981304 48.151039 
-37.020195 -103.082512 -64.600891 
8.283961 -123.066246 25.904316 
58.051434 111.014404 -11.275383 
-80.054977 -26.087311 93.591095 
-113.365433 -48.371773 27.274950 
-123.321335 -19.283661 21.325222 
77.383438 -99.794647 -12.376242 
-121.319725 24.339495 -26.516533 
-105.627701 57.903156 39.587090 
-54.273102 73.242638 -87.893562 
69.875725 -45.010887 -94.936226 
-120.249435 34.216393 19.802734 
-117.156380 23.366261 41.443184 
105.748360 7.306688 67.267776 
-121.146515 -39.238106 7.296709 
-58.552635 -9.851513 111.522675 
-24.095001 112.204041 -52.701130 
-40.606194 -118.866837 -17.808023 
19.904970 -51.314968 114.199554 
12.364015 120.758125 31.260084 
29.189486 -47.240051 113.621841 
58.059258 -112.009987 11.558161 
-45.628082 73.399940 90.897827 
-99.985428 -56.367386 -54.531349 
112.449028 -25.829908 -49.548313 
-35.462238 83.120392 87.535141 
-23.306112 21.617842 -123.213074 
-42.125141 118.159950 -2.308819 
77.921715 54.849129 -82.412476 
59.634460 -28.025827 -107.951675 
112.827286 26.946383 46.656044 
60.930332 -72.217827 83.615707 
35.599510 -39.131104 115.048386 
-26.191723 -60.677029 107.790016 
38.162178 119.108101 -6.020292 
-111.781570 11.171999 -60.107777 
-60.082207 -45.667458 101.412140 
-61.101097 59.776039 91.977051 
-120.559540 19.281652 -34.755344 
122.140854 17.074089 23.393724 
-5.468376 119.061775 -41.240047 
-28.773458 104.852158 -64.410294 
50.500359 55.790680 100.222664 
-99.798233 -69.988342 -34.479099 
31.105068 58.504234 -107.650620 
-105.009125 69.550522 10.030076 
-109.980118 31.256607 -53.915443 
-20.480286 40.017532 -119.132164 
22.110638 -122.997978 19.720936 
-39.675640 88.348549 80.615227 
55.138023 -107.053017 -40.277969 
-71.949173 103.415771 -15.105106 
88.199242 -24.552662 85.684357 
51.716652 -33.006336 -110.737946 
24.214407 -61.041893 107.692024 
-117.763969 31.255802 32.242748 
-122.708656 -13.703669 29.766455 
-90.842712 -82.562912 -32.051678 
-61.179596 10.219319 109.883400 
5.888996 -103.020912 -72.902878 
102.379204 16.866606 -70.975426 
6.484226 125.168419 3.193413 
-55.084961 40.513096 -106.514587 
-85.547920 85.130768 -36.522823 
-10.880598 16.827616 124.710190 
124.332718 -7.278610 16.469818 
-39.403797 -43.270451 -112.958733 
83.215607 93.269424 7.800673 
66.647842 100.293900 33.989655 
-63.057190 -87.359581 66.386681 
-21.699072 109.956810 56.956654 
-84.918976 22.360394 -90.918854 
-55.136383 -110.592041 -29.417442 
-46.067490 -117.898407 -2.371043 
95.519135 70.789986 -40.703476 
-50.662014 86.266563 -76.462463 
83.503265 87.923843 29.890690 
84.574539 12.933821 91.087456 
15.135487 -99.739639 75.316826 
-106.170029 -69.026840 -2.144555 
106.995857 -12.653721 -66.368164 
53.335461 111.665680 -22.542809 
-56.745773 89.929047 66.607574 
79.278961 90.461136 -33.950676 
-40.595478 -54.065323 -107.553436 
66.554886 -77.980576 72.230507 
-110.126534 49.767334 36.435612 
8.192941 117.064163 -44.862602 
114.556381 48.924095 -17.650501 
108.967163 -34.342022 -52.901222 
40.271973 -20.463142 117.856125 
98.277885 -9.581439 77.072769 
80.654495 -90.148857 33.230404 
90.517166 86.352158 -2.202811 
38.767090 12.317719 119.366997 
122.313812 -12.214283 -27.968166 
-26.058857 -82.357597 91.654724 
75.641846 47.820618 -88.504227 
-108.723557 64.675331 1.103583 
111.060593 36.487663 45.464859 
49.221630 89.916580 -72.293152 
-110.705429 -59.274353 -19.956518 
-96.468933 -50.741852 -65.675034 
-120.987701 -22.342941 -28.935097 
53.847717 42.211823 -106.094086 
-124.866768 5.373368 -19.892843 
-69.879051 -5.236982 105.117104 
-26.390575 120.576485 25.653360 
110.093475 -22.633165 55.496613 
-35.589695 -121.251289 -7.608540 
15.320007 121.938400 -23.742489 
-96.372650 -81.885895 3.775609 
40.952206 111.669273 -42.026657 
-72.363724 34.336308 96.808022 
7.838678 72.525131 102.553955 
44.499195 -93.123367 -73.084312 
55.247429 13.028920 112.374115 
-14.853164 -103.542336 -71.232513 
-79.654175 -98.590782 -2.567252 
-49.346970 115.848976 -11.545769 
20.150640 -13.088217 -125.155899 
-56.996704 105.580856 -40.165825 
45.904160 113.535263 -28.514240 
33.513020 84.295227 86.737503 
-5.341111 -33.290737 121.727448 
-37.682800 19.612354 -119.890350 
75.708351 -1.733787 100.381569 
-48.238422 -99.000412 -64.067459 
-60.137665 -110.965202 14.558565 
9.155692 -14.424829 125.072426 
101.478043 -9.266843 -73.872559 
-102.113785 -9.322355 73.350677 
106.650223 9.207371 -67.084076 
-80.991615 -93.132126 26.659119 
-76.158539 -94.214859 36.483353 
-69.746582 25.206760 -103.176315 
-123.247101 1.001024 -28.315105 
-40.221268 62.156242 -103.087700 
44.761696 47.529602 106.969276 
107.879059 18.136518 -62.929047 
-119.369461 -25.064491 33.924652 
-30.356533 -108.200439 -58.738297 
2.821621 -44.261875 -119.339119 
54.337021 111.301659 19.804413 
-107.707733 55.810669 -36.344837 
11.930895 -122.917747 -27.553753 
109.476959 44.983841 41.150368 
1.644905 118.817238 41.092770 
46.841263 83.053818 81.299057 
2.138406 -63.141541 -110.088028 
17.236858 12.193455 124.507217 
121.841751 -30.422886 7.178008 
-34.466736 107.307770 -56.057362 
-91.255219 78.114693 -40.282219 
-1.262949 123.078712 -26.567755 
-109.446533 -39.219376 49.269863 
81.053642 66.510956 68.182358 
-17.295967 123.303177 16.538223 
23.881571 -82.613022 91.857498 
-15.028564 -34.933350 120.605522 
-19.873768 21.876076 122.944473 
-108.703148 20.045164 -62.330498 
8.596134 19.343273 124.549911 
75.005592 97.099892 25.123819 
-99.382637 -76.042786 18.145624 
-118.485298 -45.486626 -1.287732 
-0.306768 -85.940948 -93.125534 
92.178902 -69.237228 -50.032326 
120.660187 -36.567032 -1.536557 
60.233818 22.213186 -108.689369 
87.399200 -82.656998 38.229164 
81.227203 -21.494373 -93.691986 
-109.283447 18.895660 60.695786 
47.067005 -99.549240 62.258205 
25.359619 -70.345901 102.114029 
-88.485199 -45.541721 -78.290314 
33.994919 -14.640228 -121.562897 
88.834915 79.330307 40.201176 
-87.584541 51.409061 -75.317322 
-56.036503 32.609020 107.945412 
46.008266 -62.731564 99.041779 
10.548470 62.036224 108.751221 
44.030010 -111.818092 -41.725056 
29.856392 20.134501 -121.591667 
0.504972 -78.260468 -100.035286 
108.174355 52.897285 34.520287 
10.253496 -125.380783 -16.216705 
122.721024 -14.359776 23.879478 
