121.492851 -32.237137 8.327167 
-63.819721 47.435486 97.116982 
-92.605270 -60.104355 -63.344833 
49.727882 13.746115 115.704445 
86.166191 -91.474136 10.553581 
82.234360 78.103516 -53.428413 
88.355934 -82.309776 -37.664822 
13.725687 -123.226135 -25.131779 
-104.913094 -55.335445 44.215401 
95.146828 3.176953 81.182297 
21.280369 -68.928062 -104.737450 
-45.716888 113.841797 27.923573 
89.910423 -37.989258 78.416107 
-58.254440 25.438072 -109.705643 
15.969135 -8.835016 -125.600647 
94.215752 -56.078953 -63.980362 
86.282509 31.815228 -86.230759 
36.099213 -62.240005 -104.558990 
-116.131714 35.708721 35.402554 
36.829453 -104.550827 60.371822 
-8.729570 -121.977577 31.854000 
-108.181808 15.022773 64.193176 
-50.946236 112.475403 -27.192719 
114.955017 -44.930679 -24.469242 
56.234482 -83.682236 75.004082 
-119.415108 28.007898 28.062418 
-95.005508 82.680260 -3.517741 
68.367538 36.536793 98.474518 
70.021431 61.285080 -85.846146 
-60.747723 -74.380562 82.414124 
106.682800 66.041328 -7.568800 
92.332321 80.472275 -26.378971 
-40.684906 44.314316 -111.566566 
26.206099 -59.246033 108.377213 
46.062634 116.579956 9.268312 
-113.872597 -47.648537 26.614567 
96.535477 79.359695 5.429603 
15.211413 -88.623039 88.325165 
57.227459 -51.102173 -100.844177 
-45.601910 -118.047386 2.548866 
50.074497 -49.312252 104.355988 
122.576767 -14.714352 24.172958 
54.169899 54.188381 99.048370 
-68.021233 71.148026 78.015617 
113.545212 53.083164 -6.742079 
42.617146 -35.975098 113.349434 
-30.011974 82.713165 89.441048 
-88.492371 60.837173 65.823540 
28.873695 -43.592903 115.573914 
-123.083313 28.166771 -6.368700 
116.992622 -28.884037 -36.770897 
25.752209 25.169474 120.650665 
-64.066681 102.629021 -34.427593 
106.097343 65.645164 -17.273384 
10.810926 96.524460 78.812218 
-121.154739 -10.203420 -39.195328 
-117.743835 26.448238 37.951019 
46.033630 116.589241 -9.081801 
-46.334526 -73.203934 -92.500351 
69.336716 -47.935638 -93.826630 
62.718864 2.905904 -109.866776 
103.792854 -25.814140 -66.638725 
-118.820175 32.813400 -28.703657 
-19.458836 -104.219070 68.626556 
78.930679 -33.860153 91.011917 
-80.890823 -92.292801 29.476145 
-24.822609 -10.520329 -125.016891 
62.046478 -109.756340 7.778712 
-40.976555 25.278919 -118.023331 
70.888931 101.765373 -21.513706 
-24.904892 -94.411934 -81.088158 
-39.951202 -103.135452 61.937939 
-98.153244 8.549104 -79.548874 
79.071762 84.318283 -47.624832 
-34.078461 -3.449492 -122.734894 
89.914963 -72.389221 49.040375 
84.884186 88.937920 22.181538 
124.180328 -12.148724 -18.262280 
-83.089218 5.953116 94.336525 
110.961342 -5.789868 58.720703 
-14.174931 62.492050 -109.324158 
-106.001656 -33.034813 -62.313847 
103.220345 -64.934631 31.213205 
74.569611 101.460373 2.868222 
67.586021 -36.299263 99.615898 
-9.858998 93.903976 -83.828888 
-17.802301 -95.269859 81.139481 
-112.549225 -18.415810 54.269005 
-43.103352 73.331993 92.129021 
-116.410423 -49.593781 -14.784804 
56.382889 111.957497 3.733016 
19.430813 -16.159563 -125.058434 
-98.598488 76.837875 16.166679 
1.889981 90.610695 86.876572 
-58.403183 -86.928017 70.277679 
-94.001236 80.740204 22.158092 
-85.189224 91.148888 16.544287 
-97.022430 -46.729271 -67.115616 
39.137653 116.395798 -25.730026 
102.358177 -70.119965 -21.062302 
-100.509155 18.361805 73.267578 
-3.188901 -86.388443 -92.463402 
110.266975 -14.141740 59.251137 
-126.000000 -11.908510 2.654655 
-38.532124 114.722321 34.871994 
-22.659353 -74.175323 99.879738 
-62.329304 -7.230731 -110.672806 
66.973022 -93.484940 -52.059952 
-104.176025 70.643967 4.717312 
121.359512 -29.429119 15.742063 
-45.356785 96.795471 -67.587563 
100.061005 -29.411526 69.576019 
-122.180588 26.938339 -19.703272 
-79.677711 67.943314 -70.812538 
12.802686 69.543221 -105.182579 
0.915634 47.938061 -117.924095 
48.398411 -76.941269 87.125023 
46.367550 -5.953383 117.455750 
121.277939 17.625984 -26.959438 
38.347198 71.535660 95.190140 
21.824825 72.704681 100.247551 
39.950634 105.631432 -55.007446 
92.194893 -64.766434 -55.990417 
-96.974106 62.017670 50.693630 
-50.480831 115.486130 -5.297078 
-45.064903 31.878534 113.674698 
-100.248459 40.142632 -66.123856 
-11.133649 123.663734 -19.931517 
-107.527016 64.383530 18.147402 
63.194584 -106.503342 -23.324751 
-56.659508 -17.518887 111.686455 
77.512985 -14.001478 97.372284 
-6.533321 50.852837 -116.752762 
-62.491665 -91.099403 61.902637 
-1.610941 -115.557785 -51.603554 
120.255951 -35.591045 -16.963997 
-81.214050 -97.113007 -12.302284 
4.605549 -37.287975 -121.471054 
8.597226 -63.544243 108.610397 
-40.572502 -117.285156 23.933069 
-54.461163 110.331665 26.899233 
-91.405334 31.492872 -81.892006 
7.851001 112.953072 -53.889629 
-47.193024 -116.378830 18.344742 
-107.285622 61.136185 27.554398 
96.876236 -78.421623 -18.053442 
-88.814133 -88.028107 19.291220 
-63.640205 -77.792976 -77.065620 
61.424011 -103.876404 -37.634884 
-49.153763 -69.547630 92.961090 
6.827818 -122.751877 -30.041561 
-28.822334 -123.416855 -11.008043 
-39.200287 3.892949 120.073486 
34.917194 4.347428 121.066666 
-62.937092 -9.555920 108.954681 
68.746880 -99.593369 -36.830650 
-52.051666 108.919815 -39.208530 
13.777175 104.617760 -68.336166 
31.030371 13.118547 -122.418015 
-27.715853 -73.711281 -99.850090 
23.082357 90.719620 -84.988396 
-109.265274 -64.964340 -0.310283 
31.998066 78.231644 92.474327 
42.191200 8.867191 -119.530823 
-54.786098 32.893093 -109.417831 
68.986603 104.833664 -2.055754 
-13.803917 33.445313 -121.858444 
-79.810669 -73.277771 65.828285 
-117.453247 -38.222954 -29.835087 
-11.821735 17.478626 124.591011 
48.974899 83.617157 -80.054245 
81.320328 17.546803 -93.884430 
-111.451096 -52.446838 -29.658667 
-2.354515 -48.939598 116.894577 
-93.875122 71.201294 -44.842495 
106.548935 -20.149258 63.790630 
-38.167030 -42.950928 -113.615593 
107.034019 -17.835848 -64.816345 
53.818062 -79.418793 -82.935219 
93.399910 55.217583 63.770508 
-44.436474 90.554169 74.674019 
-110.148773 55.857044 -26.194485 
6.042919 -110.914185 59.884064 
33.112709 -49.528954 111.140091 
-79.304962 -86.993164 45.062061 
-9.049564 -73.335190 -103.669083 
68.903450 29.025078 -101.760338 
80.967834 -96.398888 5.544558 
98.088730 -63.064655 -47.756058 
-113.642639 -0.915087 -56.052433 
93.613052 -21.254335 -81.193535 
-63.688271 -105.553009 26.752480 
-65.073662 -18.628374 106.336700 
21.469135 121.645935 22.449026 
-42.448208 79.035515 -88.853210 
-100.529259 53.091400 54.452858 
-1.886166 17.319311 -125.649124 
-35.633965 -46.919605 111.863686 
-3.542838 -92.161499 86.304962 
-95.997612 16.671404 -80.305702 
78.014885 41.018700 88.692039 
80.148193 -26.021915 92.596710 
-111.953079 58.738743 2.832934 
-40.543739 118.666000 3.732659 
37.474693 -107.787094 53.245747 
107.856964 -54.056091 -36.544479 
115.641861 16.756165 45.868309 
34.601257 22.639194 118.926025 
59.015274 -81.664993 -76.361465 
-32.051311 -57.868355 -108.531052 
103.134300 70.698738 4.181444 
107.965530 -37.871021 51.476563 
-63.880928 -109.284698 -8.964722 
-126.000000 11.564173 4.740479 
39.538803 -114.148712 -40.010330 
116.318405 12.253515 -47.746796 
-27.019531 122.993759 1.233662 
61.627411 35.808743 103.576706 
43.119671 -118.020752 15.448262 
-60.729164 -108.477966 -24.976727 
-7.170022 -56.315224 112.976585 
34.583397 -50.464508 -111.148491 
8.268578 87.883163 -89.670982 
-47.339325 89.495369 -74.935890 
-18.940247 -112.674942 -54.788803 
14.772590 98.929115 -76.069687 
-106.270035 -62.778526 -30.661753 
61.237125 -27.456707 -107.172981 
-74.418175 -79.896408 63.845543 
15.469732 115.789505 -46.422382 
-102.528419 -55.816116 -49.769455 
-86.674057 -62.719444 66.987724 
48.954449 103.315536 -52.302467 
-20.631718 89.308601 86.213593 
-29.378605 -103.903709 65.728088 
107.334808 -9.385482 -66.185555 
-80.518860 73.360664 -65.008362 
4.705163 102.612679 71.143524 
-21.363060 113.801880 48.835388 
52.662476 -67.705414 91.718483 
20.483395 112.871323 50.702354 
1.195441 -59.245346 111.541275 
39.763863 -102.748604 -63.195469 
77.084373 -87.923752 45.243038 
119.259911 -21.209139 32.896439 
-36.826355 -103.709930 -63.773846 
-36.996910 107.111862 53.546879 
-61.453876 34.866341 -105.483894 
-13.628362 94.511093 81.476578 
33.686573 107.455551 54.620262 
110.113449 -32.795197 -51.152817 
-100.397377 -19.252914 -74.438576 
25.578724 123.046814 1.828424 
-28.420700 -111.247009 53.018631 
-95.165901 0.647901 82.469757 
-34.613991 -113.423798 44.564308 
10.851928 113.396927 51.162418 
-78.485992 52.317947 -84.833076 
16.490900 107.798935 62.302063 
-55.728344 53.814461 -99.956367 
-33.854794 119.622299 18.787319 
78.335144 50.884632 83.993156 
11.069324 -119.852814 -40.558655 
-6.386235 -38.587742 120.032822 
76.961258 76.687958 62.791206 
-49.874443 -32.516232 111.287498 
113.841827 7.100121 52.436008 
63.929070 -83.045990 -70.380066 
16.694618 -14.866835 124.429718 
49.634811 1.838113 116.436859 
-120.492233 0.365744 -41.107857 
12.912483 -75.071625 101.128845 
-78.213593 -99.955551 -4.883307 
62.679668 -109.398445 -0.127929 
76.029007 -100.283470 15.349657 
44.918476 -69.498589 94.549576 
73.310310 102.389832 -12.692865 
-95.943573 39.887680 70.540932 
57.715305 38.257790 -105.647041 
-0.124396 -11.989308 -126.110367 
68.460526 36.624573 -99.395981 
118.148293 35.225086 24.064789 
14.510074 -58.545937 110.863914 
25.516277 118.345352 36.477451 
32.332405 -22.059233 119.773720 
70.537521 1.041375 -105.107590 
5.508728 -70.373749 104.592438 
-6.815247 122.377991 -27.679432 
-64.416168 -59.297821 -91.964775 
-87.796059 72.999466 -53.428703 
64.434044 -89.476410 61.555557 
-50.559280 16.121418 115.372810 
9.349194 -15.678162 -125.626595 
-2.386815 -106.298088 -68.892120 
33.361912 111.085213 47.490829 
82.403496 -15.936461 -93.730194 
-43.367233 -111.122498 43.296196 
51.347202 100.239319 54.419743 
-4.723839 -79.039749 -98.946503 
-0.208940 -0.261129 126.962883 
11.822256 123.922104 16.322834 
40.429043 -117.152397 23.879883 
112.203156 35.568478 43.668808 
105.955124 28.452986 60.972237 
-18.106512 84.019012 -92.581741 
74.989319 18.906040 -99.339249 
124.538315 -16.400778 0.639272 
32.442093 31.342638 117.789268 
-45.765175 -42.048557 -110.922913 
1.256414 125.749290 -8.948128 
-112.447952 45.064415 35.388474 
15.410723 -94.269440 82.777473 
-118.105682 -28.611120 -35.770798 
42.417374 91.323792 74.509262 
21.622490 52.761131 -113.459854 
-110.361214 43.307995 42.920189 
66.281944 87.185081 -61.953918 
51.695927 89.860352 69.664597 
14.287344 87.442566 88.665802 
-55.409584 -63.328762 -94.670181 
-66.799416 -43.411514 -98.696129 
-36.866432 64.501419 101.914146 
1.459792 108.365211 -64.589249 
-119.328247 -43.647453 -8.470372 
-11.806404 45.268166 -118.388275 
108.697502 58.197338 22.859188 
-1.180476 -74.310974 102.369476 
11.808343 79.704536 96.075432 
81.039085 77.957710 54.536575 
32.767509 108.649254 -53.523163 
118.281219 28.523251 29.985031 
-91.632988 -27.159098 82.584755 
43.742477 -64.400871 -100.004303 
-52.135643 -76.305367 -87.352699 
-117.856041 11.585867 45.859543 
121.886826 24.422386 17.589632 
-90.584595 -85.108383 -24.111584 
35.591743 3.011722 -121.930634 
16.198132 88.456993 -88.476685 
75.139626 92.837631 37.677872 
-100.688278 -67.263779 37.565880 
-114.575165 3.422748 53.017826 
-71.532013 -56.381351 87.547836 
66.105606 -69.130676 -83.138069 
66.030930 -99.611702 40.549274 
120.997742 -34.811729 -0.645945 
55.640938 58.804531 -96.259201 
76.546715 -63.228935 -77.931534 
37.099251 -108.412949 -53.482460 
92.789063 8.529534 -85.199829 
-70.371475 -31.710728 -100.766983 
-26.987183 31.376289 119.172211 
-90.476532 52.930683 -70.918243 
71.437668 25.528004 99.872215 
-58.384449 -96.129433 57.165955 
15.170093 -122.100410 27.156574 
-31.640974 -115.799606 -42.640148 
119.296432 -15.889985 39.021832 
50.910889 112.028488 -26.816219 
-109.273621 -7.826790 -64.953369 
-59.452606 -110.211594 18.643625 
18.257530 34.949081 -120.660454 
-101.169197 18.989729 -72.952789 
-110.542778 7.925092 61.815762 
-113.228188 -43.789757 35.925499 
-21.228945 44.897118 -117.693382 
-111.720871 -0.917142 59.245388 
-30.356665 -118.593117 -35.175098 
59.410606 -39.064056 -104.830307 
5.797002 96.124710 -81.150810 
4.718653 121.374344 -31.291075 
124.771896 11.734026 14.186104 
89.414299 -13.407382 -87.694641 
60.920998 -17.660543 -109.409584 
97.159935 -70.569168 -38.748970 
-104.979179 -70.589828 3.094524 
-92.024231 66.424385 -54.553444 
23.125450 -83.101151 91.635986 
-12.986689 -91.396667 -87.074196 
-116.211464 20.065685 45.246933 
-20.785254 -7.028350 124.604729 
62.294334 -109.404556 -14.758026 
-34.499161 111.776253 -46.975143 
-47.407539 -18.700138 116.361435 
-4.273871 34.300488 -122.136353 
-81.114288 -1.780653 96.207520 
-65.502861 -82.905159 -69.951202 
-105.350784 -14.184050 -69.393921 
93.721581 78.010735 27.004232 
16.932007 -68.735344 104.622536 
-39.315086 -72.801186 -96.109131 
-92.377609 -6.571522 85.537003 
116.996811 43.195747 17.060272 
51.263565 74.033875 -88.283295 
-14.328444 -122.426941 -27.047796 
92.205017 47.406067 70.026894 
-44.603867 -85.346298 82.032089 
-45.100403 -118.207878 10.347489 
107.560928 45.061127 44.998886 
20.487000 80.113907 94.083328 
80.091263 -91.838432 -31.309677 
-78.645187 -7.151083 -99.546669 
-3.077514 124.755081 -18.674452 
-111.204872 -25.811001 -54.714600 
45.869270 40.160217 109.790176 
84.102753 90.019478 -21.127470 
-87.981125 80.345901 41.450489 
-64.156921 108.128693 9.651573 
66.864624 68.857834 -81.623688 
-40.159977 -63.956497 101.534042 
55.605682 27.593117 -109.918930 
111.048775 19.389818 54.325985 
-16.730682 114.615753 -48.809521 
-70.443100 -49.995251 -92.444992 
119.107010 27.013233 -27.023771 
86.433983 26.903519 86.713287 
45.148842 -32.860733 -114.032692 
91.817337 44.686901 -72.861984 
115.866180 48.019241 7.935243 
-33.900780 71.623108 97.775101 
-13.045942 113.379303 51.342590 
24.679722 -122.204788 22.728680 
-98.934303 77.523727 5.860677 
117.463867 -37.070229 25.622227 
64.596619 69.810448 81.743546 
105.878174 -0.065243 -68.097389 
11.888733 -24.232250 -124.901222 
-16.903042 117.946548 -41.668076 
-15.840254 -118.219643 -43.407734 
-7.198139 85.386452 -92.378593 
4.584931 -100.086090 76.295929 
77.500427 -5.402296 -99.683800 
122.071579 28.227749 1.289678 
42.339443 -57.389481 -104.929955 
113.702469 -53.740074 6.828517 
23.503695 -93.320702 81.697258 
-122.639809 -4.831853 -31.473042 
-92.231071 -40.118736 -76.578506 
32.337265 117.999817 27.077826 
112.397804 45.584999 30.231674 
-26.402813 50.019379 -113.912430 
-122.713097 14.840603 27.117214 
76.096245 -4.087281 100.014084 
18.366713 123.848145 -10.615105 
-49.799511 115.704163 -13.482453 
-71.519341 102.862083 -17.957710 
81.678246 28.097103 -91.432434 
-94.113670 -58.638786 61.550125 
118.963211 41.262077 3.450124 
110.839966 58.520172 -14.869869 
-115.994469 -50.921154 -1.236143 
2.801786 44.197800 118.029213 
-98.395554 72.652046 28.655277 
14.904558 119.120399 -38.239197 
89.469650 -31.082430 82.810005 
66.993561 -89.219635 -59.196320 
-9.979807 37.912712 119.752304 
-21.579205 11.708483 -125.142578 
-29.645882 18.020859 -122.335167 
-77.923218 78.039093 60.538456 
27.149679 7.323587 123.352493 
49.748920 -44.357094 -107.673409 
77.101685 67.669022 -72.947662 
106.570587 45.481297 -47.736046 
69.551811 9.138458 -105.382172 
42.156178 108.190323 47.415684 
-25.198383 -67.522301 -104.936295 
97.534332 71.156006 31.937870 
-54.609024 74.076286 86.133560 
74.922493 33.901096 -94.987961 
-98.752426 33.154915 -71.766098 
63.724716 -53.663307 93.781586 
114.929520 -17.782207 -48.375992 
11.863894 0.349052 -126.087402 
-104.533371 -68.983932 18.957254 
92.723267 76.220612 35.699051 
-31.352203 -29.883812 118.809341 
37.411610 -42.580818 112.688744 
48.730453 97.242378 62.851112 
-53.643696 -110.149330 -34.873283 
-44.894680 -98.217697 66.407379 
95.222885 14.686423 79.533951 
103.090988 23.644337 66.873779 
-86.003036 15.163034 90.027649 
-10.418881 74.738419 100.723480 
109.347839 -63.241089 0.221943 
65.415710 102.816162 -29.642435 
31.002991 -91.034683 81.588684 
43.526840 -24.017250 116.418442 
-105.842285 39.685184 55.404434 
125.000000 -1.752105 -9.241030 
-104.167450 32.885178 64.105934 
93.202248 21.936674 -81.427986 
-61.833359 56.307358 -94.758041 
-36.259319 -120.140488 17.132942 
-99.439751 -74.531898 22.049881 
-38.591793 -117.600105 -27.149183 
92.778046 -71.763535 -45.598766 
20.107117 -117.509865 43.105225 
28.200346 122.295891 -5.911670 
44.098183 112.406982 -36.453102 
42.643200 -73.853722 -93.130066 
55.510113 97.491905 -55.622917 
91.347488 -86.565544 -8.123126 
-26.090668 39.255650 117.323227 
-39.708679 116.665741 -24.452896 
-87.658249 86.409340 -26.011642 
-67.396683 106.297523 -5.939378 
8.214997 109.131714 60.964317 
114.675537 46.667725 -21.382326 
43.642803 -115.310417 -28.032106 
72.714447 -85.209496 56.344456 
-4.590002 -126.490005 3.523050 
-37.735962 -116.018448 -35.730965 
97.066010 -33.711441 -72.867310 
77.369415 -41.135948 -90.557808 
-46.554260 31.930626 -113.798317 
-108.070396 -62.738182 23.220554 
47.428215 100.276344 -59.604080 
107.898788 -0.326655 64.445343 
90.749962 -11.888372 85.668449 
83.257660 -82.016685 -46.986115 
-65.615822 0.368799 -108.712105 
69.355881 -91.572342 50.698944 
-121.914673 -11.119647 34.243694 
-110.610535 35.754181 49.086945 
70.096245 -102.757553 22.247446 
37.023300 115.251007 -34.224457 
55.817478 -76.294708 83.996574 
52.537102 45.213501 -105.627922 
-73.547821 96.576981 -34.373215 
22.767477 118.319824 -39.241581 
73.105331 -81.615875 -62.908665 
-109.059196 46.124138 -44.035309 
51.670647 113.774200 -17.591108 
-78.990768 -96.859642 -20.979982 
116.369247 -47.921646 11.944530 
2.874128 96.438194 80.044144 
-73.526268 -63.785900 -82.292152 
-90.847992 69.152618 52.200081 
77.556168 -99.630997 -5.582250 
-31.653204 -54.582108 109.267517 
-85.605446 35.397186 85.302177 
-99.030426 -46.110538 63.979172 
42.969002 35.882072 -113.837959 
-106.617218 67.439896 -13.150675 
122.793037 -25.476227 4.246245 
-119.740379 -42.748260 11.830915 
-66.347382 -107.890610 12.695978 
-33.079155 93.647446 76.366539 
69.523415 -17.394239 103.295319 
44.150627 -11.412985 -118.802124 
-100.109207 -68.635590 -37.002300 
-108.385765 -66.118698 -9.856051 
-40.906071 57.644348 -105.208687 
-82.208870 55.045174 -78.273026 
-85.946831 -45.649025 80.438507 
-12.261286 124.700623 0.979598 
115.781540 37.076065 31.778633 
-72.719086 97.552345 32.548584 
-7.373047 -115.568726 49.451210 
74.280945 -62.082275 80.693024 
101.234940 -69.850266 25.111912 
51.695652 109.788506 -34.435081 
-51.760620 40.534241 -108.124619 
115.377106 -37.956951 -34.516026 
-13.903527 111.228355 -56.578751 
111.275070 -24.579117 -52.705284 
33.943703 -121.458015 -10.572910 
-21.985687 99.765656 72.946930 
-31.028099 -73.195511 98.313072 
-36.373730 -90.775063 -81.108147 
-28.565636 -8.969178 123.186066 
92.428123 27.268091 79.904022 
-58.267277 1.321391 112.185135 
9.318534 10.186032 -125.916412 
-75.832336 79.794128 -61.729858 
-21.797308 -108.539330 -63.073437 
63.715256 -44.829838 98.445831 
-32.563240 103.325821 -64.833359 
-121.741119 -36.146164 -4.151413 
-102.285301 -70.261581 -24.825012 
123.920624 -9.291601 18.612740 
61.772064 105.200096 26.289738 
-79.445328 7.679371 -98.749397 
78.421135 -81.580048 -55.061977 
-38.418083 7.622730 -121.080421 
104.989220 -29.827713 62.912403 
32.384335 -65.996765 102.810272 
-88.001656 -85.729553 29.532619 
110.613487 -39.073502 -45.969315 
-79.142929 67.793716 70.652191 
16.046854 -6.867837 125.009781 
53.917229 -57.877869 -98.409775 
95.574646 -13.385561 -80.732132 
1.146519 -126.867706 11.853209 
-35.610275 77.307503 -93.463638 
-27.779316 49.694752 112.686745 
103.586853 -63.105629 -35.749260 
-91.441803 81.113518 -31.542782 
-122.091072 -25.830931 21.180811 
-115.713150 25.492817 -44.374191 
-80.428436 -46.857002 -86.745537 
-47.226055 16.456591 -117.595100 
-107.872910 -64.199501 -21.091572 
116.931671 28.519108 -35.552921 
21.592607 -61.412811 -109.060631 
-28.398746 -118.987534 35.162804 
93.188988 83.751953 11.596351 
-13.308802 6.745091 -125.872993 
104.757240 -12.528818 68.297363 
-56.709572 -17.485952 -112.689789 
69.435966 -62.657318 -86.108971 
80.532471 26.856567 91.825989 
-40.989288 -12.483475 -120.059532 
48.952633 -51.998745 -104.622635 
-81.091171 -92.562462 -27.805243 
92.638565 65.747429 51.534870 
108.313843 -64.900589 -8.519230 
111.856781 -37.876095 43.499790 
76.799828 -89.085014 -44.798904 
-9.383128 -21.650051 -125.270096 
-56.537212 19.690401 111.025848 
-90.962433 35.191925 79.350853 
6.323096 -90.338242 87.596558 
-98.290100 70.056076 36.015720 
0.887996 8.032437 126.050018 
107.539856 -28.458994 -58.982830 
23.675949 104.263687 65.906326 
115.723480 -1.694051 48.330597 
-121.965279 6.004575 -34.980568 
58.922050 18.755075 109.388367 
53.658268 4.491464 -115.381927 
-69.964508 10.113185 104.591339 
-92.705994 58.331047 -64.112595 
-51.728897 -108.604744 41.501091 
-115.559135 50.870983 10.344318 
105.290176 -36.262886 -59.350868 
-97.622749 -3.738619 -80.245140 
55.093430 -21.407948 111.073441 
-61.012016 64.337616 88.989983 
-44.633095 105.916290 50.991531 
28.934383 -109.980927 -55.593513 
-105.242439 53.046547 -45.685188 
-30.669048 -122.825897 9.925624 
-96.330681 74.552452 -31.661339 
70.046349 -70.792404 76.654411 
50.292477 -116.226410 12.410080 
61.209377 54.089905 94.922256 
10.208714 -31.610844 -122.948372 
-11.002224 -89.887573 87.722672 
-111.511520 -11.749702 59.702133 
-7.130817 11.534052 -125.966499 
-41.509773 19.060110 117.845764 
-94.986847 22.533106 79.270554 
-44.305462 101.654800 -61.072098 
-94.391594 83.119347 14.030672 
97.184822 16.181408 -77.802246 
-29.587929 -51.165310 -112.838486 
42.315041 46.315277 -109.481178 
-55.825092 -83.135406 76.721848 
84.744759 -83.170380 41.734238 
-67.004448 -68.077835 -84.338799 
113.274872 -52.803238 -17.221415 
-123.959686 23.609638 9.469372 
77.270538 10.894084 -99.082405 
-111.159058 8.552314 -61.471146 
-56.314957 -66.227287 90.999832 
22.174356 18.457161 122.924789 
91.328171 67.674660 -52.526798 
87.017601 -52.303043 73.980347 
-11.164050 -8.594950 -125.948639 
-79.494492 93.600243 -27.269434 
12.506186 -120.736443 35.228279 
-17.541084 77.891098 97.222878 
113.860779 -11.218925 52.394676 
5.928189 -117.163681 -47.194317 
-16.508911 54.736782 -113.414787 
117.554985 -45.334572 4.538987 
-31.305172 121.622345 -11.735741 
-13.932047 -117.540459 44.102798 
-56.630539 50.389145 100.724022 
120.012711 35.516403 16.290922 
73.203735 -75.656845 -69.565163 
75.632530 -97.240143 25.463154 
3.836754 -78.214630 -99.876625 
-118.233177 45.036701 -13.894220 
10.942401 -117.305237 45.151356 
122.910736 -4.840942 -24.864191 
75.990578 33.891666 93.001678 
40.983498 112.762070 38.561729 
30.451202 -117.681351 -37.570221 
85.691544 39.541283 -83.277023 
110.086945 22.430805 -56.123074 
98.354523 -23.952631 -74.174301 
-98.693153 8.752578 77.840233 
-64.231049 -104.502670 -31.958269 
-100.228821 -51.211426 57.596722 
-29.212170 -103.276794 -67.615189 
-71.008720 85.672585 57.922363 
123.038254 -21.846401 14.844049 
111.800430 42.595207 38.038559 
31.579222 -113.812019 -46.160950 
37.076786 -80.606880 -90.466217 
4.466279 -51.728493 -116.893402 
31.792797 79.574760 -92.398270 
32.924667 91.317078 -80.092636 
69.100693 102.573807 20.861235 
-124.441345 -6.978124 -22.105036 
3.476658 -22.278959 124.447296 
56.435066 -111.610229 18.588879 
-21.104057 -120.577026 -33.852432 
-51.066563 -111.599670 33.748730 
105.181587 8.263481 68.011658 
34.148117 -121.392601 5.052063 
69.915878 77.903961 68.196373 
113.485466 53.213531 1.838369 
114.723175 5.272644 -51.513062 
110.487190 0.430903 -60.755226 
-116.365242 -50.112190 10.641315 
-84.752548 22.892418 89.764427 
-57.397339 -36.993095 106.034821 
71.903107 -98.155724 33.206104 
-110.356728 26.297127 -55.566635 
-75.019547 -13.772224 -101.649902 
61.432640 97.925171 47.264904 
-16.859451 0.329628 125.126724 
59.170017 -35.248291 105.332230 
120.915634 11.928917 -35.238678 
7.327588 36.170982 120.419540 
7.636279 -31.186403 122.208015 
97.901947 4.938778 -78.566193 
-78.153702 -100.012283 12.312339 
-107.438629 -40.866779 -52.974419 
-59.233658 43.016342 102.621490 
-35.680798 -99.283806 -70.161835 
-119.870926 -42.463417 2.035751 
-114.915161 -48.743114 -22.473270 
8.799656 2.471785 125.950569 
101.880478 -16.438334 -71.798874 
70.869736 -78.859772 67.295265 
-69.420494 -99.859550 -36.933491 
47.683025 -115.301117 21.279648 
-112.778511 -57.937801 -4.121889 
15.450520 -121.284088 -33.412746 
38.436668 101.492760 -64.365112 
-18.738739 -120.556931 34.673698 
-84.673126 59.713486 -71.801262 
-42.207981 57.368797 103.935349 
-70.485870 104.241905 14.312881 
86.395554 80.337959 42.377350 
55.973278 93.422371 61.880615 
-3.222512 -85.901756 92.007156 
-50.703407 44.460304 106.299210 
70.697037 -94.808243 -44.326344 
87.363029 89.245834 13.315243 
2.884576 -121.348793 -37.488567 
85.207085 19.291363 89.320801 
76.219109 -70.237167 71.499908 
-94.673279 -69.562767 45.941597 
-49.471630 115.809082 2.928985 
-119.856964 -35.714008 -22.011276 
-71.768089 -93.255806 45.827652 
-74.383041 -37.936916 94.088219 
-74.117203 92.920410 -42.187630 
-43.975529 -32.169964 -115.455582 
-83.030975 80.945831 47.882622 
67.580383 17.550280 -105.302109 
-24.156170 60.784985 -108.539505 
99.515259 -9.230873 75.448723 
31.358530 68.911392 -101.643982 
-29.274458 -0.474664 123.272179 
78.600517 -50.568554 -85.477692 
60.849960 84.801514 -70.133904 
-9.787987 -125.912445 -2.269286 
88.156189 -83.490387 33.046642 
104.726303 53.302757 43.468224 
79.036438 16.296116 95.537148 
71.537064 -54.265717 -88.886681 
47.250538 -111.052429 40.061451 
16.513884 3.442781 125.053299 
111.308167 -52.172863 -25.700375 
40.479904 29.116772 -117.204544 
-64.286873 75.214607 -78.215767 
5.991453 104.399338 -69.589798 
10.330523 -81.534927 -96.471970 
-87.119034 -23.092978 87.954781 
97.670296 73.416092 -26.519754 
43.086449 -20.431646 -118.075699 
35.763573 96.226563 -72.421837 
-120.697685 -20.819214 32.683361 
-70.027489 96.228378 41.581177 
41.311531 -45.437843 -110.832336 
107.161743 54.604610 35.635021 
121.455109 5.050434 31.433369 
45.107483 -108.805862 -47.182812 
-6.583138 26.252277 -124.578796 
-87.820732 89.485291 -15.230832 
-86.271461 -52.288422 75.854103 
63.064838 -96.715263 49.373001 
-22.292305 71.772842 101.242020 
114.334633 20.907009 -47.724861 
-15.046641 124.379227 11.381044 
115.953880 30.524752 37.395760 
114.870026 -30.311989 41.135254 
118.332657 37.046593 -22.319654 
91.037476 -21.098202 83.670753 
-80.823784 60.992516 74.459908 
73.645294 46.151619 -90.870926 
-32.353382 119.926353 -20.284821 
-78.820908 -42.739178 88.594971 
-4.178077 78.552322 97.601822 
113.507385 -18.924084 50.000847 
-56.387726 -69.801918 -89.678680 
-4.312491 110.791740 58.512550 
-25.784130 -88.372574 -87.488037 
110.782936 14.706888 -58.387787 
99.395615 75.605751 12.056089 
72.565842 -29.707649 97.817825 
53.947651 19.940704 -112.845917 
-75.156441 -55.226189 -86.370964 
83.841362 -79.620331 49.125580 
-75.805481 -62.016308 79.956612 
55.331207 -72.735527 -87.651619 
-7.499878 -118.389778 -44.436310 
60.126297 -90.879593 -64.536621 
-49.146610 23.983675 -115.040833 
-9.553699 103.665321 -70.265968 
-98.261139 -76.720192 -21.552832 
57.562279 -4.164525 112.005569 
-88.315483 5.056567 -90.385338 
-98.967430 -56.212627 -56.775085 
-79.953827 -81.351265 53.641865 
-15.329132 -69.345337 104.779823 
-109.817940 63.238953 10.164750 
-14.568850 8.627945 125.072685 
-112.891602 -9.630991 -57.691040 
23.493088 -4.422149 -125.171318 
40.698311 55.618484 -105.939499 
96.534012 79.361610 -11.704884 
-50.774075 103.900208 -50.403721 
32.946270 39.020836 115.723999 
25.959526 36.433746 -118.928421 
28.702938 62.552860 -106.294640 
14.022696 -114.042267 51.679825 
22.089607 59.301025 108.612534 
-24.923794 -97.865601 75.545303 
52.027458 -100.109535 -56.751984 
-64.875282 95.765022 48.352020 
31.367792 104.192123 62.653122 
5.725206 69.598465 104.390854 
73.792664 -97.700928 -30.621998 
110.470917 59.790730 -3.600666 
-47.992496 115.244492 18.007332 
-41.461964 -94.692589 72.811752 
-96.386948 80.867134 -11.739177 
-62.442234 11.631964 108.938995 
17.630314 -79.738411 96.164642 
53.578621 113.542519 -4.767606 
80.249924 45.117283 -86.331963 
31.976891 -112.610718 47.127308 
-106.865845 -13.870722 66.457329 
32.241306 87.853607 83.953812 
87.320267 89.380806 2.374410 
102.436279 -2.836131 71.614876 
38.783756 -118.674881 -19.690105 
-100.892120 -20.534889 72.148277 
-58.053448 -51.493187 99.759995 
34.681484 -58.742287 105.891533 
47.230545 68.526337 93.401642 
-57.360874 -53.810421 -99.719208 
70.789627 55.973042 87.046928 
-80.091927 48.866158 84.456917 
-73.970108 -103.171722 -15.620014 
119.607719 20.862621 32.039562 
-85.963486 -35.910702 85.171005 
49.247459 11.494427 -117.142883 
-11.189556 -61.953224 -110.451736 
77.026321 71.055023 68.809151 
-116.613464 -39.948608 29.577675 
-39.375484 37.700012 114.112137 
21.894035 -124.473770 -0.082686 
25.777889 -52.062244 112.305939 
40.993980 -89.971115 78.311493 
-90.886787 -75.927612 -45.284534 
64.217873 -28.461540 104.154907 
115.177902 24.658607 42.809315 
72.145660 -104.048111 -9.082440 
25.489790 122.963234 -14.404986 
-4.260149 104.212540 69.287506 
-16.960125 66.900391 105.280289 
-20.083481 18.827066 123.575439 
-58.437641 58.509361 94.382355 
-100.266647 -60.827370 47.645020 
61.503345 109.063332 -1.726832 
-117.594154 -3.258155 46.430954 
87.591255 -71.990784 -54.677937 
-75.672928 -27.351274 96.880486 
39.993893 -88.041306 -82.347435 
56.280579 91.114403 -65.810356 
125.000000 -3.557736 11.175858 
-6.691349 -36.014359 -121.863098 
-97.479172 64.551933 -47.301121 
-119.028282 23.240532 -37.087017 
34.725258 112.248016 -45.020473 
-101.294815 -12.158789 74.063873 
-80.918114 -27.955349 -93.309464 
35.851162 -15.392760 -120.913437 
-24.996235 120.754379 25.313763 
18.943142 123.784096 12.120084 
24.298122 -113.652496 50.162926 
-73.049713 11.572315 -103.480881 
116.830566 -10.300375 -46.915138 
41.480293 80.692764 -87.584358 
-117.598259 46.421974 -3.353108 
89.470284 86.703316 -15.895044 
-115.186996 11.502817 -52.666889 
-99.459648 -77.834198 1.554615 
-46.134834 0.224033 117.876854 
5.918324 -89.782272 -89.258537 
10.675696 -55.814003 -114.084572 
-75.440392 -23.243694 -99.177994 
-84.003120 -1.206253 -94.470718 
-71.585304 35.652649 -97.919525 
51.487934 -29.029945 111.107529 
117.679108 -8.762780 44.063751 
-122.417427 -31.674923 -14.747458 
-44.644520 112.305618 -37.462742 
55.875053 -113.244537 -1.386370 
-0.085895 -3.896373 -126.710312 
-52.624413 93.978607 -65.746078 
54.830894 110.553719 21.647530 
-35.940662 90.873917 -79.851349 
-7.198605 4.231624 126.049866 
125.000000 -12.476627 9.753356 
-118.778030 42.719593 15.109179 
-30.098087 -66.423782 103.647583 
-111.732559 24.183544 52.890636 
-65.750183 17.530640 -106.942131 
-72.466805 72.651787 -73.335129 
-25.921223 9.696323 123.733612 
47.153847 61.951202 -99.215096 
99.093124 68.364517 -35.099388 
28.064095 -29.020603 119.536728 
111.152649 -45.058285 -39.086647 
-85.614189 -87.339821 -31.712914 
78.163353 -79.298645 58.227409 
109.069756 -60.703445 -19.623402 
-33.261276 111.100243 47.958668 
-116.735275 -28.843058 39.987316 
17.177263 7.125857 -125.560211 
-71.466141 -100.942856 -28.762068 
40.948860 63.661800 100.115784 
1.026551 122.058807 29.403008 
91.295166 35.841194 -78.321564 
125.000000 7.825121 4.443997 
-80.857544 96.450745 -7.350279 
-31.543882 67.193352 -103.244720 
-87.967621 89.714882 -3.954309 
19.418533 122.498993 -19.339884 
25.007767 95.995918 -77.224335 
-85.101746 92.429932 8.330875 
-109.947815 -49.304100 -40.283970 
-119.644142 -37.180454 21.155273 
-29.285606 -34.464516 -119.182175 
-12.748133 -101.128395 73.682518 
19.379416 10.731392 124.400848 
102.537094 -57.254456 45.391220 
-28.086952 20.296900 121.287506 
10.785604 -82.914490 93.934074 
-123.568535 2.484517 -26.643629 
75.533051 82.532326 -55.961960 
-22.016661 37.081264 -119.642029 
98.027573 28.000963 72.266891 
-65.934769 107.119583 -14.015202 
24.933126 -109.846817 57.350937 
42.548332 90.324150 -76.584297 
-13.586745 -34.442020 120.877693 
-89.033653 -81.866463 38.994453 
-50.957394 -51.994141 -104.190147 
-13.546911 -81.249481 -96.364632 
-63.412239 -93.052490 -58.095551 
86.496101 5.766738 90.161591 
-41.508408 -94.189514 -74.454712 
6.303728 -14.849211 125.196960 
60.039551 87.805351 66.102829 
-42.576210 -4.504389 -120.015610 
76.609085 -20.596012 -97.944115 
74.505417 -21.455320 98.438774 
-75.752579 59.851635 81.110985 
85.191208 -45.629410 -81.149292 
-11.806151 121.179634 28.537949 
23.897915 -120.451996 -33.266239 
-43.325775 10.602612 118.379120 
55.774452 -113.301392 -12.946048 
19.571678 64.875473 -106.746307 
-20.207348 -44.300343 117.288788 
-81.434982 -53.815510 -81.167648 
70.174545 -56.621956 87.580154 
114.881683 -38.570889 34.723545 
-23.598696 -33.449608 119.595894 
-95.493546 -63.244041 -54.042908 
-68.540649 -106.650932 -2.024960 
-82.682999 23.008991 -92.739784 
63.134571 24.801006 -106.393013 
-57.873444 -46.863434 -103.237373 
40.334007 -50.305969 107.949219 
-77.449394 92.007416 36.331261 
-31.567104 -122.538528 0.094103 
84.793991 63.127747 66.814941 
12.879923 -125.513855 -5.092752 
60.901440 13.241737 -110.023209 
41.274685 33.506073 114.472755 
-6.490173 -126.278870 -10.100610 
23.139990 -36.992714 -119.554832 
-29.519588 28.209799 -120.351212 
-65.851982 61.221668 -89.159958 
79.646210 94.694763 19.529480 
-123.659721 -21.256008 -17.847883 
94.734116 -4.595975 -82.723984 
-4.691183 -99.322311 -78.377655 
80.483139 95.858070 -0.356921 
49.656837 107.343491 -44.123447 
35.172897 -117.962662 -28.526058 
-25.363689 118.290199 -38.898167 
122.195473 -18.819225 -23.402672 
-94.745567 58.710888 59.035927 
23.494778 33.180099 119.241791 
69.741096 89.274445 -53.291168 
-124.311447 20.329342 -15.397383 
27.058928 -1.100126 123.661148 
-8.460943 -4.801378 125.916389 
-42.065102 -119.179169 -11.713409 
120.036987 -26.719027 23.250154 
-121.821251 11.241339 34.729462 
61.148117 61.080242 90.394272 
-17.651779 95.242668 -80.834854 
-12.958370 -51.716515 -116.253510 
-56.787758 80.219055 -79.337593 
-1.557442 -30.720984 122.726219 
-112.115692 55.336781 18.696020 
-6.379265 79.407364 -97.810623 
11.124133 54.865822 113.027802 
32.934528 -119.893921 22.222303 
-27.632881 -41.055603 116.850433 
-57.740349 46.403339 -103.100006 
90.555588 11.406096 85.821518 
-115.101837 44.420849 26.403023 
86.878952 -65.498383 63.440617 
5.367836 -107.773201 -66.390869 
-53.386238 -97.459251 -61.160007 
18.366779 15.086229 -125.130302 
1.145617 6.776546 -126.460579 
69.603699 64.020416 83.282005 
-67.123322 -106.327255 -18.770344 
-105.915161 32.275639 -62.348835 
-111.471542 52.373684 26.861977 
-58.913284 84.992767 -72.037041 
97.734390 45.723267 -65.004021 
47.235931 -99.507347 -63.171257 
85.394981 -18.980511 89.176270 
-83.728546 -74.626266 59.005428 
103.349785 65.760056 -26.839254 
118.382095 -34.949623 -25.354912 
-103.582329 -71.910057 -15.442322 
-24.138557 -57.705132 109.922836 
49.102142 -85.459702 77.940262 
-70.263222 -5.787406 -105.883255 
-2.653863 -29.201435 -124.181290 
79.765884 88.693222 -38.521004 
-104.934067 64.266220 -28.635647 
61.050888 93.754578 55.583576 
-0.891392 -126.444656 -15.977284 
19.356155 -111.549438 -56.872742 
70.601761 -26.146852 -101.713081 
-53.343212 81.788239 78.869125 
-104.350838 24.327438 -67.344025 
44.687588 -114.019669 31.740513 
-4.825394 -50.333679 -117.392853 
-89.615257 -76.717178 45.457886 
-15.173379 120.199417 -34.222393 
121.650261 18.742558 24.243660 
123.299011 21.845154 -5.125211 
-7.167005 125.288429 10.267223 
45.775330 -58.510742 101.964462 
55.470261 8.331131 112.840736 
-69.247437 93.383217 -48.669006 
119.985428 2.846979 -40.031807 
-50.658833 -42.805237 107.256569 
-40.781872 95.905304 70.169754 
68.134834 98.345757 -39.335293 
18.717287 -124.840309 7.639693 
-91.620468 -33.157650 -81.215157 
-74.957985 84.346718 -55.381348 
109.737312 -51.350624 33.164097 
-73.524231 59.513412 -84.850563 
-79.482826 -51.774574 83.908546 
35.193748 120.058006 -10.380775 
30.042656 -33.162781 -119.093658 
-11.500680 -109.024857 -63.946888 
-39.244759 -24.085548 117.875084 
20.674353 -120.196381 34.647964 
-19.283474 122.945190 -18.804064 
97.565247 60.707275 -50.574936 
33.940601 -96.574707 -74.066330 
-60.076668 6.879632 -111.908424 
-83.521439 33.293488 -88.796890 
-70.936333 -101.245010 27.509001 
71.667252 92.199348 -45.526951 
82.909500 61.734665 -71.306931 
4.423418 28.522552 -123.938904 
86.531464 54.766964 -72.864647 
55.690369 -87.927254 -71.312012 
-3.674314 66.897537 -107.160454 
-19.251530 -124.860947 -5.622740 
-40.243431 -32.847767 116.051041 
17.196270 100.264923 72.842728 
-21.792696 27.434578 -122.205193 
48.396545 68.988075 -93.525284 
-15.305320 103.408180 69.007874 
64.683289 94.639297 -50.572815 
48.592392 27.692072 -113.800446 
40.546741 46.583168 109.171188 
110.203293 55.695328 -22.746929 
-112.565201 -56.291676 -17.947042 
-43.669212 108.202194 -48.039452 
-120.472748 -27.010521 -26.319630 
-35.819763 86.725388 84.247749 
-94.374901 -80.724731 23.517189 
46.654091 94.580261 -68.566643 
-119.635666 41.976719 6.277716 
33.621140 38.508850 -116.682587 
-118.825096 4.043897 43.745255 
-43.512222 -98.870316 -67.434448 
11.135760 124.651581 5.298150 
-91.678154 -53.466656 68.975876 
39.033310 -17.585182 118.621170 
-65.613708 -98.720581 43.933884 
-124.912125 18.656992 1.457998 
123.012222 10.262733 -24.336470 
-41.168407 -80.312492 88.224655 
-32.599628 -26.097864 -120.253220 
108.463943 7.570423 -64.703568 
30.594959 56.574005 107.734741 
21.897964 -24.928267 -122.753998 
81.266068 -7.541210 95.116364 
54.342281 27.322538 109.805771 
-49.766689 2.685922 -117.714661 
87.493835 89.216354 -8.592947 
-12.005733 84.467201 91.536865 
-86.795578 84.314911 34.033260 
7.969120 -63.819221 -109.389709 
28.305382 45.338768 -115.376160 
82.513008 -57.005951 -76.067467 
-94.813469 -63.434155 53.863857 
50.710350 -103.975433 49.933659 
-104.524818 -29.098949 65.028015 
75.759605 87.655090 46.105423 
82.923325 53.551811 76.599899 
-72.390137 -102.761795 19.135239 
74.931152 82.801216 55.534523 
-54.803284 113.415535 9.621987 
101.968643 61.658371 -41.426563 
-73.949944 -103.593506 4.305008 
55.982243 102.927483 44.191345 
70.332024 -7.388054 -105.232674 
-1.019909 -71.656967 -104.996094 
22.292561 -99.673523 -74.842903 
101.322205 -21.705908 70.222916 
-4.071815 58.862831 -112.026947 
33.827450 120.495209 6.150599 
5.411338 -97.014587 -81.382126 
7.068596 -6.480749 125.898849 
94.580048 -62.598953 53.738243 
-73.709305 102.729523 -2.428695 
-59.497360 86.459206 68.801414 
-65.250763 -96.055939 -50.273540 
102.348862 -72.729630 7.893798 
-9.446917 -114.916519 -51.687569 
-88.869644 77.180466 -45.851227 
-46.465622 66.906822 95.515640 
91.425995 -84.841156 18.376232 
-58.183285 103.355087 -42.980721 
-16.062313 -83.820755 92.882172 
88.648735 61.685905 -64.786537 
121.609108 -0.862812 -31.632645 
-64.746582 -14.828615 -108.202080 
30.241302 -121.306618 -20.238129 
-37.720940 -120.569305 5.694408 
75.778534 -93.146820 37.912193 
9.729664 37.403336 -120.844810 
101.642548 68.031181 25.576439 
-67.267754 78.898407 -71.566940 
23.438755 -10.476347 124.066658 
-25.777641 123.141045 9.882245 
42.407227 -97.583191 -69.179161 
3.470212 -115.599792 50.176552 
-0.384469 16.040211 125.144707 
-80.651833 -20.608042 94.269806 
-9.045363 116.729950 44.730385 
63.865158 53.282478 -94.367775 
106.241257 -62.690353 -27.405790 
-81.297470 -29.644928 91.360901 
123.491516 -21.844152 -12.631533 
-76.090874 -83.447777 -56.772369 
98.903229 -42.420040 -65.869766 
97.561844 -37.383099 69.176369 
-3.402262 -104.094734 70.791046 
-11.862312 71.291908 -104.190353 
23.109665 103.238792 -68.485916 
79.465233 -68.439407 -70.294327 
-89.497009 -14.915554 87.265869 
97.855255 53.447346 57.569233 
-96.951248 52.130188 62.692886 
-67.974449 -91.995605 53.563744 
-0.897601 -11.729593 125.680099 
108.087967 -49.514969 40.872093 
-58.574272 -102.315788 45.373291 
70.991669 11.472673 103.126053 
-94.624100 -77.739380 30.907915 
-69.001724 -86.339500 61.538532 
29.673004 15.071173 121.557343 
82.151062 94.277946 7.601748 
-4.267326 -124.874557 20.787830 
-2.870455 53.267094 114.537964 
39.249565 -75.560562 92.485870 
-58.965149 35.380043 105.557419 
92.611626 -4.287809 84.367935 
-65.299751 -50.790619 95.016907 
-93.347626 13.492537 83.684830 
-63.291122 -61.483814 90.131485 
-124.818970 -18.202082 14.867463 
-102.832344 -40.446632 -62.780602 
94.642433 -32.330151 75.641373 
84.528976 -93.006531 -14.062235 
123.169914 -23.516434 -4.372144 
68.381912 85.196953 61.214622 
-40.213657 118.545479 -15.042520 
-26.403137 -17.740395 122.427536 
41.813046 96.621758 68.377808 
-125.088318 -18.740738 6.569566 
-103.416077 -39.613567 61.295338 
-105.119072 -47.403469 50.842377 
71.150192 -41.761177 94.595154 
111.224365 -14.947232 -57.740128 
-33.856766 120.805840 10.933985 
-62.902431 -102.703735 -40.566395 
77.441727 2.908013 -99.739410 
23.762707 -45.129711 -117.274261 
18.593998 -115.297302 -49.000378 
-53.958870 11.596968 -114.969223 
-78.869560 98.334106 8.978536 
111.890640 -28.867229 48.418739 
-23.011801 -124.443130 12.170305 
11.168644 45.704262 -118.206818 
91.885696 -84.147766 -20.368248 
22.405022 120.275238 -29.370274 
114.919128 42.274132 -27.842327 
-12.674738 -125.591705 6.026777 
34.113605 119.215309 -19.807678 
122.930176 22.093454 -15.307598 
18.220013 -51.312553 114.475296 
-109.649712 -54.762291 31.008804 
-56.509819 -29.397938 -109.780258 
7.926470 -126.085403 -11.155205 
-117.218376 17.097130 -45.462585 
117.095917 -29.860327 33.331623 
-122.581230 -30.144049 14.573030 
47.172848 -115.747047 -20.811829 
55.276695 102.096428 -47.363892 
109.434868 -24.556894 55.969887 
-79.825241 -66.592972 71.537560 
-103.214905 61.001129 -41.838676 
-79.345238 -88.176735 -43.936092 
-97.480286 -67.300949 -45.060844 
88.905312 64.939728 59.413712 
57.928963 80.773819 76.117531 
-15.281934 59.959297 109.537323 
106.666161 -66.512833 14.546886 
118.779083 -42.663815 -12.522461 
89.614563 -88.207253 0.082892 
-120.998352 12.561746 -39.465656 
-40.967411 -114.787399 35.214417 
-93.414291 78.170235 31.547171 
102.387177 53.509644 -49.168404 
-104.897270 8.741516 69.697334 
19.198212 95.615051 79.001732 
14.986618 38.700657 119.058258 
105.942673 53.101067 -42.184975 
0.084031 -111.479988 -60.754284 
-121.658897 35.573761 10.263203 
7.374451 -71.924454 -104.550346 
-54.851734 -93.326553 65.127037 
45.900467 -117.631851 4.478112 
-78.514473 41.888180 -89.800110 
-38.502480 112.203323 42.258362 
-39.633095 -85.101654 -86.209679 
-86.542465 42.702278 80.705177 
104.751373 -48.647270 48.550179 
-18.973682 -27.472277 122.012070 
-37.278530 -63.617893 -103.801010 
6.675850 -105.600998 68.308960 
53.701542 -109.824844 32.713627 
-84.092964 75.198677 56.094032 
-122.067307 21.420128 22.486349 
101.648148 72.649307 -12.488684 
-69.113831 60.226402 86.772560 
-88.138062 -56.289135 -71.786781 
68.258423 -106.128250 13.496162 
-18.934414 -36.329956 -120.616821 
28.229507 122.286568 12.561095 
-100.810837 57.676590 -50.545296 
-110.281265 -43.052307 -45.214184 
-62.157734 -44.798126 100.407295 
5.016776 123.763916 -20.792725 
46.235958 112.393700 32.042686 
-13.327958 119.200722 38.043137 
-101.601616 70.224609 -24.327324 
-73.980942 73.741890 69.674088 
83.347961 -94.144035 -6.217180 
5.708830 -125.102348 18.368740 
58.985466 -95.070724 57.167610 
29.071608 -86.307648 -88.079620 
-2.185935 125.041367 16.561117 
20.461903 66.453339 104.756851 
-37.972511 79.780701 89.409470 
-16.753759 -3.147388 -125.743393 
110.828308 49.443359 -31.527813 
-95.273354 -32.736450 75.901031 
-35.066864 45.215218 112.403091 
42.771378 -83.452507 84.587265 
34.289047 21.621578 -120.159935 
-8.905974 -64.394234 108.034874 
-5.975831 24.279343 124.083069 
44.671265 114.628464 24.048759 
-8.063778 99.292320 75.691727 
-116.263336 32.269684 -39.486160 
-47.122185 -107.060669 49.077126 
-125.590729 12.397263 -16.128178 
14.066541 60.541985 -110.247368 
-121.334023 -1.137232 37.263069 
-87.560165 82.446152 -39.202496 
-89.252808 54.067802 70.479721 
3.111171 125.543198 7.649329 
110.553467 59.610622 8.302139 
14.082645 -124.832932 -16.755566 
-4.021653 -80.009491 97.265236 
6.509223 20.424833 -125.328712 
-99.229469 -37.449429 68.392769 
23.553692 -124.282272 -13.129169 
-61.417057 -73.699020 -83.501541 
75.562119 3.780753 100.520096 
-67.613434 18.391651 104.762657 
111.391144 44.304768 -37.853493 
-14.065748 -108.093231 63.940773 
-93.867348 -77.269012 -36.165951 
-41.571575 -22.277216 -118.511375 
-52.327183 77.784653 -85.293373 
-98.479027 69.264488 -38.412533 
8.986068 53.148888 -115.175453 
60.145241 103.220673 -39.582275 
-35.006458 103.093674 63.113319 
-114.188721 53.860966 -3.082697 
-49.619701 -7.316271 -117.666779 
-16.196632 18.820313 -125.107193 
-100.567902 -48.800331 -60.084961 
25.869179 3.906107 -124.941376 
26.106216 20.919815 -122.436638 
-106.092430 -60.028564 36.236549 
91.600082 39.954998 74.833542 
102.286964 -38.708721 62.375134 
-80.916290 81.897842 -50.560360 
-38.479317 -119.360725 -18.720510 
97.919937 65.029297 43.103268 
105.497612 37.937260 -56.596573 
3.120850 -58.367996 -112.933853 
-122.696289 -18.500410 25.209299 
-42.445564 47.012623 108.526321 
3.473794 112.646957 54.194221 
-124.951401 -19.452692 -7.618249 
-82.496582 88.032089 -36.004044 
3.532190 -102.488907 -73.994995 
18.244740 -40.866173 118.365891 
-6.367748 -119.068718 42.080372 
97.622597 24.857319 -74.860977 
-85.752892 -37.566113 -85.742340 
-60.063541 71.623985 -85.569519 
71.861145 98.122627 -31.463530 
-50.857368 -75.645706 87.418587 
-118.300507 35.843109 26.465353 
-63.389366 -28.342758 105.295013 
-28.377319 -82.160957 -92.278442 
-22.693180 -122.027420 25.468689 
-15.712905 -56.990715 111.818993 
3.034024 117.538422 -44.693665 
-96.193924 -82.120476 -4.255747 
64.016281 -84.236671 68.001122 
17.510582 24.086878 -123.723946 
92.696182 -42.671524 72.372726 
81.121223 -63.876392 71.389610 
-24.791391 -82.992058 91.449356 
101.222595 -45.946877 58.200356 
-25.157257 56.569538 109.773979 
-17.349810 76.130142 -99.830742 
87.485664 -86.236160 25.685225 
101.387192 29.041702 -68.636391 
53.767948 -21.911207 -112.815613 
-28.454115 -122.062233 20.083683 
-73.183617 31.547592 97.121147 
-19.470301 68.549240 -104.921494 
-92.292740 73.380371 43.839806 
82.734596 93.725121 -13.196995 
26.130606 96.521637 75.080566 
57.461224 -91.753242 64.396042 
54.887341 67.208496 89.929848 
65.597382 106.749306 5.000597 
-74.719528 -86.939583 52.060169 
90.599762 84.397003 19.264805 
63.585960 100.465988 39.952515 
22.606346 -53.925301 -113.231232 
-1.595635 74.128098 -102.848976 
-107.833557 -21.338102 -64.058266 
75.454903 -13.145862 -100.592949 
-111.802628 59.066982 -10.807831 
95.922440 -47.720741 65.714233 
81.935913 -92.203842 22.696381 
56.166588 79.443207 -79.985687 
-93.882423 -43.608051 71.794670 
51.794937 -12.952686 114.692444 
43.936619 21.352449 -117.539192 
94.349396 -58.021164 60.182602 
-112.831635 -57.821869 3.709625 
-120.796837 -18.736837 -34.176449 
89.900024 -56.477409 67.559174 
-30.367382 118.807693 -28.965542 
-26.824730 -121.642303 -25.796692 
-1.444168 -19.983967 -125.501877 
97.817787 -64.821350 45.006691 
-8.276364 -26.740322 123.632126 
-119.477371 -28.396465 30.283087 
103.189362 10.854850 -71.477631 
-2.333721 -94.912590 -84.799652 
44.407982 102.166710 58.263016 
59.636089 45.508835 100.575729 
-21.475727 3.841421 -125.381752 
-45.944527 111.787949 36.998981 
-90.340103 46.634369 73.891090 
121.167984 30.913588 -15.576349 
39.463310 56.352432 105.019852 
51.774307 -67.714043 -93.161896 
-78.939011 -12.389666 97.530670 
22.480806 -118.366882 -41.782173 
35.123474 94.794098 73.599930 
-48.498631 59.667858 99.540588 
-66.824669 103.269371 26.185907 
31.349880 65.201996 103.020088 
-17.426203 -24.530102 -124.065979 
102.714661 -72.249504 -11.050951 
80.704422 -73.050415 64.137863 
23.476124 -107.982468 -63.092278 
