ply
format ascii 1.0
element vertex 740
property float x
property float y
property float z
property uint32 faceVert0
property uint32 faceVert1
property uint32 faceVert2
property float baryAlpha
property float baryBeta
end_header
-0.058708 0.206378 -0.083883 14847 15187 16457 0.150524 0.629378
-0.140334 0.213829 -0.077100 16762 17995 16765 0.103012 0.415099
-0.124518 0.219666 -0.083720 14851 15839 16769 0.636646 0.028332
-0.004810 0.213029 -0.078502 15191 16760 16767 0.043697 0.683006
0.026820 0.212840 -0.079597 14509 16766 16460 0.360895 0.206754
0.064487 0.212232 -0.084370 15508 16166 15833 0.082803 0.148866
-0.112286 0.249881 -0.078034 14860 16467 15202 0.254062 0.700823
0.089737 0.248084 -0.083239 14863 16182 16463 0.431157 0.221380
0.132068 0.247671 -0.085224 15519 16181 15849 0.682665 0.036873
0.148514 0.242582 -0.080727 15514 17090 17696 0.668935 0.262144
-0.122427 0.271445 -0.083601 15528 16188 15854 0.514788 0.182501
0.145371 0.271370 -0.080791 12458 15853 14526 0.161873 0.722722
-0.130900 0.289061 -0.084564 15206 15856 16191 0.346020 0.052383
-0.119789 0.304818 -0.077700 16476 17409 17098 0.000509 0.062585
-0.140694 0.337997 -0.085081 14888 15535 15538 0.033287 0.274012
-0.121142 0.334834 -0.077448 17107 17111 18017 0.172380 0.479031
-0.149658 0.364389 -0.083700 15540 17428 15872 0.843800 0.056860
-0.094127 0.362320 -0.081555 14894 16496 16804 0.397590 0.284767
0.145720 0.368973 -0.076540 15874 17731 18025 0.450714 0.347787
-0.147241 0.394232 -0.084420 15232 15550 16211 0.236073 0.454123
-0.091300 0.396406 -0.082022 15233 16505 15879 0.392959 0.215162
0.149218 0.391470 -0.078965 15548 17125 18615 0.530469 0.456797
-0.138306 0.429437 -0.081877 15240 17133 15243 0.378524 0.480112
-0.122175 0.427553 -0.075853 16820 18335 17742 0.706000 0.028284
-0.089736 0.421029 -0.083579 15556 16215 15558 0.245543 0.255044
0.153846 0.421633 -0.082679 15239 17132 15557 0.402885 0.201249
-0.092747 0.457635 -0.077808 17139 17142 17140 0.654695 0.189566
0.158430 0.457457 -0.084856 14571 15251 16225 0.032770 0.425336
-0.123437 0.482197 -0.075936 16834 17760 17762 0.320607 0.076908
0.182760 0.485726 -0.084780 15260 15575 15574 0.341570 0.400398
0.161923 0.493240 -0.083208 15265 15582 16234 0.226432 0.296030
-0.125137 0.513167 -0.080269 16247 17774 18058 0.508114 0.073344
-0.094946 0.515861 -0.082377 15915 16251 16250 0.379498 0.057141
0.179415 0.513654 -0.085554 14596 15279 14956 0.002411 0.047154
-0.121653 0.549971 -0.085151 15295 15928 15611 0.191349 0.214955
-0.093977 0.542987 -0.084893 14608 15930 15608 0.066862 0.257846
0.180439 0.548218 -0.076678 16555 17793 18062 0.610230 0.270978
-0.087865 0.561360 -0.081422 15934 15941 16874 0.022715 0.716350
-0.086776 0.579583 -0.081294 14619 16878 15947 0.224810 0.613456
-0.060668 0.578919 -0.081036 15945 16880 15948 0.590143 0.354532
0.151263 0.576380 -0.081985 15623 15946 15943 0.085506 0.737670
0.179035 0.573394 -0.079907 16281 16283 17187 0.444459 0.111653
-0.125203 0.609377 -0.076438 17487 18087 18091 0.714342 0.009811
-0.090891 0.601236 -0.076852 17199 18089 18684 0.780962 0.098808
-0.047205 0.604027 -0.084177 14980 15958 14984 0.501541 0.182450
0.179988 0.601561 -0.080379 15959 17482 16885 0.317345 0.397529
-0.124549 0.630415 -0.081344 15971 16574 16577 0.115281 0.261196
-0.089735 0.634700 -0.081502 14996 16583 17214 0.357270 0.342586
0.180648 0.630835 -0.077129 16906 18099 17494 0.629342 0.164712
0.188097 0.647115 -0.080618 16305 16584 16911 0.010287 0.636017
-0.049754 0.651424 -0.082447 15006 16310 15330 0.134722 0.715204
-0.063980 0.662552 -0.079164 16597 17228 17839 0.350402 0.552089
0.149467 0.666716 -0.084847 14310 15016 15015 0.029728 0.139898
0.182168 0.665511 -0.081704 16595 16599 16596 0.358829 0.268096
-0.119212 0.694025 -0.083726 15022 15670 15671 0.059243 0.526021
0.179972 0.691523 -0.083645 16002 16003 16328 0.556354 0.147966
-0.117083 0.723604 -0.082969 15359 16017 16016 0.090897 0.808314
-0.116272 0.752394 -0.078539 17246 17530 17532 0.830987 0.103968
0.188187 0.755627 -0.076405 17247 18720 17531 0.316920 0.124250
-0.118012 0.785339 -0.081549 15683 16626 17251 0.574859 0.342435
0.189278 0.786392 -0.077768 17250 17252 17540 0.559399 0.029274
-0.120863 0.810166 -0.078702 16349 17865 16948 0.231594 0.317380
0.000199 0.816393 -0.081249 16635 17258 16947 0.707617 0.158615
0.033402 0.815959 -0.082498 16041 16347 16352 0.059546 0.574161
0.057934 0.817553 -0.085507 15696 15698 15704 0.018701 0.523393
0.091505 0.812360 -0.083012 15697 16348 16951 0.644243 0.105597
0.192150 0.816020 -0.084561 14706 14709 15386 0.380475 0.062995
-0.015559 0.828826 -0.076333 16355 17553 16957 0.056090 0.629797
-0.110469 0.847131 -0.084247 15399 16363 15712 0.680590 0.107183
-0.025827 0.847189 -0.077241 16962 16963 17885 0.089795 0.126125
0.044356 0.840632 -0.078277 17268 17886 17271 0.651669 0.207430
0.063748 0.843520 -0.076951 17270 17884 17883 0.437512 0.003037
0.184984 0.843994 -0.084879 14717 16646 16362 0.602423 0.379284
-0.111792 0.873352 -0.084914 14721 15717 15406 0.193690 0.770480
-0.057869 0.879530 -0.075890 16654 17574 17893 0.342819 0.155366
0.122869 0.871670 -0.084518 14723 16062 16063 0.446134 0.510218
0.190702 0.877139 -0.083556 14377 16372 16653 0.604144 0.163933
-0.116292 0.903704 -0.079386 15725 16655 16971 0.212749 0.249361
0.150609 0.903812 -0.079508 16376 17579 16656 0.423290 0.509865
-0.079055 0.917612 -0.077756 15728 17281 17280 0.180536 0.589724
0.154454 0.921198 -0.085294 14731 15411 15082 0.153255 0.576945
-0.120119 0.930529 -0.075915 17581 19037 17582 0.537690 0.021474
-0.082311 0.936825 -0.083707 14392 16073 16071 0.058355 0.659853
0.157480 0.938549 -0.080825 14732 16378 15731 0.063891 0.441810
-0.123432 0.969334 -0.079948 15424 17296 16672 0.297501 0.429333
0.001185 0.969143 -0.081356 16085 16671 16984 0.118151 0.687586
0.071072 0.964092 -0.080823 15423 17295 16084 0.160668 0.613109
0.148126 0.962519 -0.076454 16669 17911 17292 0.019193 0.419889
-0.107220 0.976581 -0.081936 16678 16686 16987 0.442883 0.364156
-0.064309 0.970995 -0.082628 14407 15745 16389 0.242094 0.374342
0.200152 0.971013 -0.080399 14404 15747 16983 0.114143 0.404977
0.134044 0.987054 -0.085010 15449 15767 15763 0.436658 0.249279
-0.063975 0.992298 -0.075961 17622 18215 17623 0.023937 0.102109
-0.004938 0.990945 -0.083004 14773 15452 16112 0.055592 0.329560
0.063398 0.990942 -0.082331 15766 16415 17007 0.509203 0.431784
0.090728 0.997365 -0.078822 16118 17023 17332 0.454538 0.519288
0.120396 0.993762 -0.076401 16707 18216 17938 0.646761 0.235216
0.152471 0.996136 -0.079906 17018 17021 17022 0.571662 0.131185
-0.023531 1.008770 -0.084439 15142 16127 16717 0.132237 0.838614
-0.159249 0.050536 -0.069878 17038 17345 18509 0.014986 0.089809
-0.125363 0.050578 -0.069675 17346 18819 19081 0.607431 0.013590
-0.101649 0.067279 -0.068239 17963 18516 20365 0.439972 0.488582
-0.077925 0.067695 -0.070558 16728 18243 19086 0.353175 0.219541
-0.039382 0.067246 -0.067269 18823 19087 20131 0.015502 0.596666
0.017889 0.066916 -0.070616 17048 17049 19084 0.158957 0.384981
0.104507 0.065996 -0.073681 15796 16726 18513 0.369443 0.100665
-0.190676 0.082760 -0.073268 17650 18824 17651 0.668116 0.158661
-0.174369 0.148446 -0.071633 15808 18525 17975 0.243653 0.113840
0.169021 0.141028 -0.073175 14821 18252 18251 0.133748 0.352626
-0.117824 0.159693 -0.068700 17367 19100 18835 0.390540 0.587357
-0.019763 0.158673 -0.067111 19367 20609 21396 0.858112 0.129651
0.133093 0.158599 -0.066644 15813 19896 18258 0.351455 0.554818
0.163468 0.159148 -0.067980 17059 17980 19370 0.184627 0.129517
-0.045930 0.160069 -0.070554 18255 18531 19632 0.535332 0.291866
0.040251 0.162745 -0.069908 18257 18839 18261 0.489876 0.401260
0.084646 0.178643 -0.070642 17986 19105 19376 0.413537 0.303517
-0.132086 0.194695 -0.067285 18263 20153 19639 0.338389 0.382456
-0.155475 0.200227 -0.067154 18845 19641 20154 0.328877 0.343810
-0.098203 0.200497 -0.068861 18267 18846 20395 0.119992 0.756253
-0.073180 0.206062 -0.069069 18551 19915 18850 0.700692 0.171432
-0.040036 0.201663 -0.073560 17679 18849 18546 0.625795 0.126836
0.075708 0.202581 -0.074697 17674 17677 18543 0.279182 0.628939
-0.121160 0.233983 -0.069671 17691 19128 19655 0.049475 0.513981
0.088934 0.249726 -0.065917 18566 19925 19658 0.172898 0.243320
0.158244 0.258945 -0.074556 16782 18571 17095 0.477687 0.366056
0.112452 0.261532 -0.067644 18869 19669 20900 0.671510 0.129031
0.141924 0.296637 -0.074734 16475 17410 17408 0.079568 0.621195
-0.110090 0.320221 -0.071377 18582 19143 18583 0.656043 0.009637
0.142189 0.323211 -0.066438 18014 19675 20179 0.274709 0.194476
-0.140502 0.339955 -0.066557 18879 19146 19677 0.079719 0.914254
-0.102369 0.347590 -0.074969 17422 17724 18308 0.565463 0.292016
-0.127235 0.357007 -0.073291 17425 18311 18595 0.189318 0.085716
-0.110695 0.367704 -0.068701 19151 19412 19408 0.099315 0.644222
-0.132024 0.385006 -0.068556 18901 19162 19946 0.214743 0.424537
-0.100214 0.382580 -0.070531 18606 19416 18612 0.139467 0.505572
-0.098100 0.409426 -0.072616 18330 18905 18627 0.326085 0.043574
0.154993 0.406356 -0.070466 17131 19426 18619 0.052510 0.162538
-0.129108 0.411425 -0.070632 18326 18906 18629 0.016940 0.550183
-0.132638 0.441864 -0.068264 18923 19436 19699 0.308362 0.469447
-0.104656 0.445796 -0.070938 18636 18925 19186 0.359876 0.352297
0.170682 0.479055 -0.068330 19192 19193 19706 0.390956 0.281659
0.187613 0.489218 -0.065948 19711 19712 20204 0.649981 0.275014
0.195694 0.507713 -0.070515 18655 18658 19717 0.595561 0.065239
-0.133692 0.536853 -0.071803 18061 18663 18946 0.451281 0.240794
0.184797 0.531602 -0.073253 17172 18662 18060 0.359685 0.414844
-0.126754 0.561473 -0.068555 19204 19461 19979 0.404983 0.492222
-0.074857 0.568239 -0.072009 18065 18956 18368 0.431652 0.511042
0.159264 0.560949 -0.068878 18950 18951 19460 0.342626 0.280250
-0.114480 0.579856 -0.065625 19986 20216 19987 0.256349 0.096385
-0.125491 0.590011 -0.074690 17806 18377 18086 0.369075 0.483621
0.143916 0.599513 -0.073396 17481 18383 18085 0.215805 0.339611
0.165856 0.590339 -0.074938 18076 18081 18078 0.105350 0.119205
-0.114175 0.622667 -0.067011 19746 20007 20009 0.448278 0.249251
-0.096022 0.624193 -0.065756 20240 20241 20245 0.267933 0.549695
-0.050964 0.627740 -0.065768 19753 20244 20010 0.241363 0.579692
0.139200 0.625870 -0.070222 18387 18689 19485 0.495458 0.206746
-0.087988 0.642666 -0.066108 19488 19494 20252 0.293126 0.448580
-0.115280 0.659009 -0.073511 16913 18703 17504 0.054288 0.866651
0.144668 0.650981 -0.074965 18108 18112 19233 0.024399 0.746967
0.167193 0.654199 -0.065713 19765 20024 20505 0.281293 0.536017
-0.112244 0.680485 -0.071717 17843 18413 18708 0.158298 0.187692
0.191205 0.695505 -0.065891 18416 19771 20035 0.240073 0.036909
-0.115837 0.707868 -0.068723 18420 19511 18712 0.201955 0.762613
0.195328 0.713147 -0.071492 17525 19247 18423 0.028668 0.212832
-0.113333 0.738289 -0.066122 19515 20042 19778 0.085823 0.521515
-0.109569 0.772486 -0.070072 18428 19256 19519 0.203522 0.178027
0.188268 0.800725 -0.067976 17864 19259 19258 0.139468 0.058886
0.016583 0.819228 -0.075377 17260 18148 17872 0.004539 0.824636
0.018999 0.838800 -0.067652 19271 20295 19275 0.502524 0.493298
0.080871 0.837147 -0.074961 17558 19027 18154 0.544303 0.085640
0.104863 0.833679 -0.074240 17878 18153 18739 0.644993 0.130111
0.195722 0.832786 -0.067162 18738 19024 20539 0.678234 0.190753
-0.116413 0.841730 -0.067446 18158 18442 18743 0.217503 0.013500
-0.111875 0.859936 -0.070959 17569 19543 19548 0.561648 0.337718
0.075189 0.854480 -0.068155 19542 19544 20303 0.969869 0.029239
0.116887 0.858631 -0.069103 18747 19809 18749 0.280842 0.095729
0.188102 0.853119 -0.069903 18165 18748 19805 0.129298 0.715201
-0.043146 0.868107 -0.066605 19282 19549 20305 0.005745 0.450242
0.052901 0.860029 -0.066306 19545 21051 19547 0.044218 0.454376
-0.113595 0.883186 -0.066227 19555 20063 20312 0.020852 0.620881
0.141662 0.884870 -0.075338 15722 17576 17896 0.011719 0.770908
-0.070837 0.894988 -0.067688 19287 20779 20314 0.712374 0.199604
0.194810 0.899532 -0.067920 19286 20555 20315 0.673785 0.308919
0.197102 0.921429 -0.068196 17899 19816 18753 0.274925 0.548472
0.033121 0.939645 -0.070110 18179 19294 19293 0.571450 0.161446
-0.121284 0.947106 -0.069174 19039 19569 19044 0.175206 0.514956
-0.081126 0.953612 -0.072006 16666 19045 18184 0.123901 0.849834
0.018218 0.951663 -0.069490 18763 19043 19823 0.108034 0.693804
0.156600 0.950502 -0.066532 19572 19820 20794 0.671352 0.207377
0.201912 0.952647 -0.071257 17902 17909 19299 0.201339 0.374725
-0.118854 0.986433 -0.065815 18201 19584 19846 0.135044 0.396897
-0.101748 0.988130 -0.068000 19318 19325 19841 0.346024 0.238801
-0.084841 0.987415 -0.073305 17928 18199 18208 0.341093 0.136032
-0.042499 0.982484 -0.073137 17612 19316 18472 0.492459 0.246591
-0.025699 0.988612 -0.070478 18209 19848 18784 0.501748 0.096457
0.078841 0.986459 -0.069123 17933 19324 18781 0.340698 0.360346
0.195078 0.980074 -0.066301 19052 19307 20336 0.268036 0.336031
-0.012735 1.000311 -0.069386 17029 18496 19065 0.221886 0.765183
-0.142963 0.044739 -0.062796 17345 18813 20357 0.115088 0.314876
0.175687 0.047746 -0.056107 21613 21832 22103 0.667410 0.230279
0.132703 0.055893 -0.062339 20122 20362 20124 0.601583 0.160822
-0.131169 0.061815 -0.056415 21373 21377 21834 0.434487 0.083762
-0.016153 0.067438 -0.065575 19087 19088 20366 0.012540 0.983953
0.050590 0.066541 -0.064653 19620 20852 20601 0.829828 0.004128
0.076721 0.066774 -0.063885 17964 20129 20602 0.123476 0.054891
0.192785 0.077364 -0.062645 19358 19359 20132 0.169374 0.257423
0.195145 0.097014 -0.061798 18825 20368 21125 0.249853 0.730062
-0.188410 0.112581 -0.064518 19092 20135 19093 0.327244 0.469025
0.187545 0.113488 -0.060605 20369 21841 20605 0.703885 0.006482
0.015403 0.158538 -0.063471 18532 20144 20381 0.024126 0.184540
0.101789 0.158016 -0.059545 19631 20608 20141 0.145491 0.717011
-0.079747 0.161176 -0.061895 19636 19899 21137 0.180507 0.340779
-0.058294 0.161646 -0.058385 20867 21399 21853 0.306682 0.542293
-0.044106 0.173120 -0.058005 21404 21649 21650 0.500205 0.432383
0.045098 0.182874 -0.056744 20149 21405 21866 0.309340 0.229732
-0.118640 0.198685 -0.055903 20390 22139 21874 0.268384 0.381842
-0.058089 0.198926 -0.063008 19906 19908 19907 0.406857 0.046505
-0.013833 0.207294 -0.062999 18854 20396 19383 0.262511 0.623280
0.045545 0.205846 -0.060147 19909 21152 21154 0.357106 0.410145
0.011230 0.215435 -0.064363 19123 19389 20885 0.399799 0.200348
-0.133888 0.226380 -0.059877 20409 22396 20890 0.557210 0.388252
0.084195 0.230829 -0.065570 18280 19654 20410 0.225004 0.755212
0.172053 0.249747 -0.063654 19923 20165 20412 0.036226 0.544896
-0.122139 0.253533 -0.063043 19926 20168 20894 0.052021 0.606951
0.099645 0.259962 -0.055701 20636 21897 22154 0.476171 0.044261
0.130141 0.259762 -0.065345 19665 20421 20419 0.308393 0.594696
0.147145 0.258630 -0.060299 20170 21430 20635 0.503722 0.460861
0.153711 0.279444 -0.061436 20177 20422 20643 0.167223 0.635824
-0.115263 0.285718 -0.064729 19930 20642 20423 0.595234 0.099126
0.144565 0.345298 -0.064113 18023 21182 20430 0.291411 0.057658
-0.114556 0.351934 -0.057332 21181 21687 21450 0.056786 0.624233
0.153062 0.385188 -0.061196 19418 22172 19680 0.615603 0.223664
-0.103096 0.394527 -0.057658 20932 21194 21454 0.230001 0.166591
-0.103977 0.423236 -0.060733 20671 20673 20948 0.018817 0.016267
0.161320 0.427951 -0.064887 18921 19955 19949 0.053908 0.092361
0.164822 0.444974 -0.062843 18928 20962 19955 0.221168 0.014510
0.166285 0.462866 -0.062996 18928 20460 20685 0.086252 0.459440
-0.130998 0.470537 -0.060042 21209 21465 21210 0.253229 0.089265
-0.133974 0.491301 -0.064612 18651 19961 20203 0.271873 0.289825
-0.126477 0.514720 -0.061657 20207 20699 20700 0.180662 0.458249
0.165055 0.542170 -0.058399 20979 21224 21474 0.272700 0.399995
-0.112110 0.556732 -0.058118 21476 22198 21477 0.548853 0.075314
-0.094711 0.557970 -0.056744 21717 21946 22200 0.496286 0.253214
-0.088305 0.584906 -0.063041 20483 20720 20718 0.450746 0.152847
-0.061501 0.588928 -0.063619 19468 19736 20485 0.231594 0.096181
0.150441 0.586066 -0.064074 19737 20719 20478 0.649552 0.214295
-0.104038 0.594722 -0.065547 19993 20224 20228 0.680733 0.060363
-0.116833 0.643100 -0.065531 19758 20257 20734 0.697093 0.219570
-0.061664 0.649748 -0.060928 20736 21004 21732 0.839845 0.132290
-0.104251 0.656789 -0.057264 21247 22207 21965 0.489755 0.004620
0.181098 0.671965 -0.058858 20742 21262 21261 0.054058 0.325031
0.189920 0.743059 -0.062328 20279 21022 20519 0.324102 0.334916
-0.111244 0.803825 -0.064543 19785 20526 20527 0.599178 0.143276
-0.116771 0.820776 -0.065363 19529 19788 20052 0.187950 0.252160
0.029090 0.855378 -0.059565 20546 20767 22493 0.896667 0.015657
0.129851 0.869751 -0.065086 18170 20062 20308 0.252302 0.212922
0.190446 0.868545 -0.062330 20307 21054 21308 0.501744 0.195237
0.146542 0.885232 -0.055812 20065 22034 20780 0.024747 0.909406
-0.115979 0.915871 -0.064016 20316 21320 20783 0.896872 0.019559
-0.080296 0.915015 -0.059182 19815 21789 22041 0.440127 0.273663
0.159291 0.920861 -0.064220 19288 20069 20785 0.588260 0.254170
0.059800 0.945847 -0.064553 19822 21331 21551 0.678078 0.105741
-0.112926 0.955978 -0.055710 21556 23007 22057 0.780931 0.157894
-0.073088 0.968287 -0.065155 18769 20329 20328 0.440188 0.556289
0.075656 0.969133 -0.057286 21077 22302 21338 0.535681 0.439094
-0.050198 0.975854 -0.057096 19302 20332 21800 0.185216 0.029518
0.127628 0.978962 -0.062150 19838 20568 20334 0.300737 0.582882
0.175840 0.978318 -0.064745 19836 20084 21084 0.734370 0.174354
-0.044136 0.994542 -0.057367 20824 22087 21819 0.735678 0.205251
0.015679 0.998937 -0.062685 19862 20104 21820 0.252346 0.727888
0.140457 0.995747 -0.061814 19860 20584 20102 0.334864 0.497857
-0.069849 1.005136 -0.062411 20112 20836 20834 0.566554 0.257256
-0.030825 1.005074 -0.061480 17947 20107 20351 0.066274 0.135547
0.033180 1.008169 -0.063183 19872 20842 19873 0.027564 0.306272
0.061949 1.004983 -0.062571 19343 19865 20591 0.047778 0.287788
0.105527 1.003987 -0.065503 18504 19071 19864 0.076463 0.255402
0.161435 1.003056 -0.065590 20108 20110 20588 0.644120 0.185866
0.133802 0.039774 -0.055433 20354 21109 20594 0.126768 0.820239
0.151816 0.038367 -0.054275 19350 21608 20844 0.062228 0.881302
-0.185326 0.060862 -0.055195 20361 22108 21619 0.351829 0.461588
-0.115564 0.067702 -0.046662 22579 25119 23322 0.051637 0.082706
-0.087518 0.067835 -0.055536 19086 23077 22844 0.442869 0.077210
-0.056228 0.067398 -0.048777 20604 24636 24374 0.613380 0.203425
-0.030539 0.067470 -0.051415 20366 21621 21837 0.024495 0.199384
0.003842 0.067078 -0.049786 22578 22843 24100 0.777104 0.160926
0.026363 0.066943 -0.055501 19084 21122 22843 0.500945 0.205416
0.060570 0.066648 -0.045656 20852 23321 23619 0.177044 0.642260
0.085231 0.066877 -0.047013 20602 22113 24101 0.146571 0.096032
0.100620 0.066732 -0.055346 20129 20603 22113 0.016118 0.416611
0.120138 0.065890 -0.050854 21620 23074 22348 0.317073 0.510670
0.190295 0.064388 -0.049004 22349 23317 22577 0.476500 0.313630
-0.195670 0.079288 -0.055026 19621 21838 21622 0.240200 0.101832
-0.198993 0.097170 -0.049938 21382 22581 22352 0.153862 0.489229
-0.175519 0.126814 -0.051957 21628 22357 21844 0.205197 0.500393
0.175499 0.129023 -0.046647 21629 21845 23624 0.175240 0.260329
-0.180600 0.154947 -0.051896 20860 22854 22360 0.318011 0.300117
-0.146723 0.159168 -0.055348 19897 22367 21848 0.037246 0.046091
-0.116483 0.158814 -0.045847 22123 24382 23331 0.427940 0.442416
-0.090630 0.159801 -0.048445 22590 23332 23089 0.316612 0.568816
-0.026404 0.159945 -0.049781 21395 22858 22589 0.236252 0.381658
-0.002081 0.159080 -0.051613 21390 24115 22364 0.333389 0.072388
0.025401 0.159261 -0.049160 21636 23088 21850 0.155548 0.738147
0.118701 0.157880 -0.053606 20142 22855 20143 0.161832 0.515552
0.152430 0.158225 -0.053298 18258 22366 20864 0.017549 0.771053
0.177640 0.159597 -0.045864 22369 23334 24123 0.475087 0.056939
-0.163912 0.160007 -0.047418 21852 23867 22367 0.152873 0.455002
-0.055930 0.182773 -0.046656 22596 24130 23644 0.362987 0.244537
-0.033486 0.186974 -0.048717 22599 23339 22869 0.193613 0.492781
0.093775 0.188137 -0.055613 21141 22136 21406 0.349703 0.335865
-0.160572 0.192717 -0.049666 21868 24658 23095 0.775102 0.157178
-0.085361 0.206591 -0.052621 21657 22144 22613 0.086440 0.565224
-0.150984 0.216112 -0.052860 21419 21880 22394 0.418545 0.580851
-0.028832 0.212142 -0.053338 21663 22619 23354 0.547382 0.293394
0.002712 0.217087 -0.047366 22395 23661 23357 0.059814 0.577070
0.032499 0.215288 -0.050093 22393 22620 23660 0.640176 0.332027
0.087384 0.212206 -0.055583 20627 22149 21655 0.178656 0.737500
0.094468 0.241512 -0.046348 22887 23116 23899 0.335804 0.291989
-0.125577 0.259464 -0.046038 21163 23362 22890 0.055303 0.422451
0.163491 0.259746 -0.051558 22398 22889 22626 0.476402 0.397971
-0.121948 0.277008 -0.050751 22408 22634 23126 0.248062 0.572242
0.121398 0.270495 -0.049132 22633 22635 23123 0.350707 0.241836
0.178248 0.272623 -0.054278 21903 22157 22407 0.549194 0.328044
-0.120748 0.301529 -0.047525 21438 23677 23376 0.318942 0.640797
0.145687 0.302011 -0.054918 20905 21906 21172 0.209416 0.109415
-0.153031 0.338340 -0.053944 21683 22415 21684 0.481519 0.476026
-0.123921 0.332550 -0.053510 21175 23384 21444 0.454710 0.434015
0.146451 0.337605 -0.048638 22165 22904 24176 0.570441 0.012837
-0.137299 0.344980 -0.047160 23136 23387 24175 0.085863 0.792083
-0.110813 0.368117 -0.047505 21689 22644 23390 0.026996 0.928484
0.150609 0.368200 -0.055418 19680 21915 20922 0.256799 0.281610
0.158576 0.398547 -0.049466 20448 22645 23143 0.274277 0.309679
-0.116565 0.448558 -0.054985 21459 21923 21698 0.109769 0.365149
-0.145619 0.450031 -0.046193 23405 24473 24475 0.616505 0.121006
-0.140802 0.483610 -0.049815 21468 23700 21934 0.131016 0.143116
0.184596 0.480825 -0.047885 22658 23943 22916 0.364882 0.456733
0.178819 0.518433 -0.049550 22435 23423 24213 0.735973 0.210762
-0.136024 0.524810 -0.049162 21710 22667 23155 0.164721 0.395112
-0.125328 0.540543 -0.050236 22670 23426 23156 0.006227 0.060869
-0.087806 0.571875 -0.046844 22926 24221 23708 0.565447 0.001375
0.158563 0.572121 -0.050800 21722 22675 23430 0.208048 0.348483
-0.056670 0.608208 -0.051195 22449 22679 22928 0.025542 0.178790
0.148115 0.609059 -0.055247 21238 21727 21726 0.056568 0.576020
-0.055870 0.631252 -0.048491 23167 23713 23714 0.728694 0.131768
0.152933 0.639155 -0.048080 23168 23169 23715 0.169377 0.776345
-0.116025 0.669504 -0.050998 22459 22935 22693 0.156821 0.695660
-0.087031 0.661975 -0.055055 21966 22209 22690 0.757751 0.144886
0.164047 0.661763 -0.048278 23441 23719 23965 0.675717 0.065106
-0.122324 0.699868 -0.053729 21017 21984 22216 0.292672 0.083242
0.180787 0.691575 -0.045628 23726 23973 24240 0.467473 0.222657
0.193901 0.706484 -0.051596 22217 22218 22942 0.221194 0.269456
-0.117043 0.723064 -0.052542 21990 22945 22705 0.280449 0.285264
0.188944 0.725480 -0.054617 21020 21993 22221 0.139301 0.171525
-0.105904 0.752859 -0.049890 22711 23189 23733 0.568287 0.108970
0.185344 0.759292 -0.050260 22473 24251 23466 0.693029 0.164275
-0.107104 0.785798 -0.055247 22003 22231 22230 0.256449 0.044559
0.183958 0.783162 -0.052245 22477 22953 22714 0.106737 0.072700
-0.003359 0.818479 -0.055453 20288 21763 21764 0.139843 0.703616
0.183965 0.814159 -0.053805 21288 22722 21524 0.027156 0.467699
-0.106501 0.828902 -0.051610 21291 22960 23478 0.602312 0.291867
0.007842 0.836258 -0.050391 22013 22243 23480 0.269774 0.396079
-0.115665 0.844044 -0.049547 22017 23481 23482 0.407999 0.124783
-0.032138 0.841297 -0.054839 21298 23998 22245 0.404877 0.081825
0.094261 0.849791 -0.052060 22251 23749 22730 0.764388 0.009449
0.116587 0.849348 -0.050673 22021 24001 24266 0.873510 0.084005
0.193292 0.840789 -0.047395 23203 23999 23746 0.630320 0.245961
-0.106001 0.874913 -0.052071 22264 22739 22748 0.131524 0.502479
-0.055562 0.879909 -0.055406 20309 22033 20777 0.300471 0.350776
0.056653 0.875010 -0.045937 22745 24014 23496 0.052951 0.424844
0.181444 0.879472 -0.045723 23498 24018 23757 0.086230 0.446890
-0.104407 0.894774 -0.050969 22751 23216 23765 0.503486 0.447249
-0.092157 0.907146 -0.048989 23508 23510 23509 0.090182 0.570254
0.056712 0.900964 -0.047063 23770 24023 24022 0.649372 0.336303
0.154007 0.900508 -0.049168 20067 23506 24024 0.046618 0.873118
0.184515 0.903778 -0.047278 22980 23514 24021 0.154955 0.194032
0.043514 0.917744 -0.046835 23516 23771 24027 0.116380 0.204837
-0.108719 0.938247 -0.054486 22045 22512 22517 0.247484 0.655652
-0.086525 0.932394 -0.055452 21793 22279 22277 0.355739 0.376517
0.033884 0.939954 -0.051466 22284 23523 22780 0.068299 0.098045
0.059803 0.934295 -0.048176 23234 23236 24294 0.339418 0.548053
0.161907 0.936491 -0.054888 21327 22509 22285 0.288623 0.304581
0.194547 0.932538 -0.055070 21792 22048 22996 0.325620 0.395279
-0.084058 0.949700 -0.054940 21553 22289 22287 0.231236 0.410747
0.066178 0.955755 -0.049848 22293 22523 23781 0.462976 0.155508
0.196833 0.955479 -0.048215 23247 23531 23783 0.815467 0.025760
-0.065131 0.969896 -0.046760 23250 24315 23536 0.618400 0.320006
0.003351 0.969990 -0.055035 21075 23015 22527 0.434908 0.058259
0.146376 0.963349 -0.048629 22297 23011 24045 0.282059 0.319750
0.182694 0.969805 -0.045654 24051 24314 24052 0.349642 0.404377
-0.106788 0.974634 -0.050840 23018 23251 23019 0.398355 0.590415
0.161892 0.979531 -0.048269 23258 23260 24059 0.601481 0.230145
0.190238 0.985879 -0.048107 23264 23809 23561 0.035794 0.311770
-0.087861 0.994296 -0.053074 22324 22554 22817 0.067867 0.913424
-0.057869 0.991103 -0.045690 23819 24337 23824 0.152940 0.140609
-0.021853 0.990503 -0.051564 21353 23042 21814 0.243602 0.653137
-0.001809 0.990097 -0.050170 21351 22081 23575 0.079204 0.526142
0.070463 0.991407 -0.054590 21815 22322 22547 0.503878 0.299421
0.092509 0.992729 -0.053964 20576 22548 21357 0.118689 0.639719
0.116865 0.998264 -0.053060 21598 22823 22326 0.224365 0.740351
0.153459 0.995387 -0.048255 23584 23586 23833 0.527599 0.235021
0.175103 0.994687 -0.052650 22551 22821 23046 0.572797 0.344812
0.153101 0.034346 -0.036305 23849 27194 26924 0.594074 0.184747
0.176640 0.038826 -0.040145 22342 24362 24360 0.079253 0.873598
-0.165038 0.050109 -0.036157 24866 27486 25115 0.032190 0.122186
-0.134891 0.050179 -0.041528 24626 24628 24868 0.268322 0.652645
0.140224 0.058847 -0.037358 24099 24630 25873 0.252302 0.375516
-0.133519 0.066939 -0.036399 24875 26388 25623 0.358472 0.095006
-0.073535 0.067482 -0.039322 22845 24374 25345 0.355840 0.044269
-0.015047 0.067211 -0.041643 21621 24876 24375 0.015614 0.802012
0.037425 0.066805 -0.040253 22843 23619 25876 0.335449 0.332355
0.102320 0.067087 -0.036712 23857 26129 26390 0.165280 0.821168
-0.201281 0.085034 -0.036392 24877 26655 25348 0.763737 0.062128
0.199206 0.082616 -0.043665 22847 24638 23859 0.363852 0.280313
-0.192199 0.116986 -0.038698 23621 25122 24882 0.016566 0.437605
0.195412 0.111431 -0.036035 25121 26134 26132 0.700900 0.044720
0.010470 0.159277 -0.039550 24122 26400 25638 0.996536 0.002250
0.143663 0.157583 -0.036515 23630 24886 25891 0.344195 0.066961
0.054553 0.173419 -0.040475 23874 24652 25370 0.232877 0.053891
0.109584 0.172855 -0.043922 23336 24128 24392 0.207938 0.492011
-0.175424 0.196097 -0.036065 25132 25643 26157 0.675357 0.060243
0.106715 0.190010 -0.038368 24657 24900 25642 0.259928 0.284397
-0.164731 0.208390 -0.043031 23348 24913 23352 0.292365 0.629102
-0.126424 0.201069 -0.038521 23877 25136 24401 0.332023 0.212571
-0.100321 0.207090 -0.036642 24911 25911 25648 0.574362 0.112719
-0.071154 0.209465 -0.042413 23889 24666 24141 0.185117 0.309514
0.053926 0.203094 -0.043486 22611 23880 23883 0.013358 0.829156
0.097055 0.204270 -0.040952 23879 23884 24906 0.173546 0.166059
0.019541 0.216087 -0.037543 24407 24668 25917 0.120140 0.238402
-0.133457 0.238695 -0.045120 21670 23114 23115 0.067164 0.162192
0.105478 0.267023 -0.039549 24678 25665 25158 0.436308 0.086568
0.139761 0.267835 -0.042491 24151 24681 24926 0.514218 0.460148
0.174598 0.269413 -0.037330 25398 25399 26180 0.644916 0.243083
-0.127886 0.289376 -0.036451 25675 25936 25938 0.408455 0.234143
0.128797 0.282602 -0.038328 24423 25162 25403 0.115479 0.581936
0.170846 0.291163 -0.039208 24688 25406 24935 0.036666 0.606783
-0.139678 0.305104 -0.041571 24940 24943 24941 0.110259 0.749870
0.147908 0.312954 -0.038870 24439 25948 24944 0.080954 0.242266
-0.156081 0.320186 -0.043363 23923 24698 24167 0.175146 0.539717
0.149287 0.351324 -0.037992 24444 25421 26204 0.956211 0.018035
-0.126411 0.382082 -0.036299 24956 25955 25954 0.150315 0.347400
-0.146543 0.397420 -0.035854 25701 25957 26457 0.927344 0.062241
-0.118747 0.398016 -0.043664 24452 24458 24455 0.296195 0.492603
-0.126545 0.413282 -0.040315 24714 24966 25187 0.024848 0.333673
-0.105247 0.414689 -0.044430 23934 24186 23935 0.537738 0.378397
0.165093 0.419133 -0.038044 24188 25725 25961 0.591967 0.131820
-0.127252 0.443901 -0.039122 25199 25450 25451 0.702202 0.098980
-0.104607 0.440025 -0.045262 23399 24465 23938 0.059072 0.268294
0.169141 0.443646 -0.044762 22424 24472 24467 0.195406 0.562349
0.172838 0.470682 -0.040114 22183 25206 22656 0.151902 0.748254
-0.129169 0.502648 -0.044609 23151 25212 23947 0.681803 0.229163
0.196254 0.500271 -0.043313 23946 24981 24208 0.577425 0.373773
-0.119850 0.526711 -0.037588 23955 26249 24745 0.177456 0.513073
-0.101182 0.537200 -0.042452 23957 24220 23958 0.728277 0.200826
0.172199 0.535271 -0.039774 24987 25217 25490 0.695517 0.182514
0.164972 0.561492 -0.036628 24991 25992 26253 0.297476 0.465426
-0.072609 0.590881 -0.045109 23433 23710 24224 0.547408 0.104008
0.155389 0.591795 -0.041928 23434 24484 25222 0.426260 0.067536
0.151932 0.612685 -0.037569 24485 25498 25223 0.087218 0.622779
0.159996 0.649653 -0.035885 24754 25999 24997 0.212148 0.467692
-0.066454 0.656837 -0.035926 25502 26001 26002 0.110351 0.862208
-0.102970 0.685018 -0.043863 23723 24235 24494 0.358906 0.119218
-0.082778 0.686321 -0.039179 25231 25503 25504 0.749652 0.047954
-0.100875 0.719287 -0.037916 25507 26010 25508 0.013918 0.002818
-0.103389 0.740103 -0.037838 25511 25766 25512 0.652461 0.238636
0.184762 0.740272 -0.040276 25017 25018 25513 0.831025 0.099661
-0.104915 0.772980 -0.043582 23734 24779 24511 0.220431 0.095818
0.184852 0.774114 -0.036259 25517 25518 26022 0.531002 0.119430
-0.102017 0.806216 -0.042846 23990 25024 24513 0.397930 0.127586
-0.019805 0.820428 -0.040694 23474 25026 24784 0.089604 0.742144
-0.035740 0.839211 -0.037072 25531 25777 25776 0.196646 0.093566
-0.103319 0.840675 -0.036633 24261 24788 25779 0.326407 0.104695
-0.099314 0.865337 -0.038935 25037 25267 25548 0.168313 0.493247
-0.045022 0.865462 -0.043212 24270 25266 24538 0.803514 0.114393
0.022868 0.860068 -0.039003 24533 25541 25545 0.360281 0.333987
0.040213 0.869180 -0.045378 22741 24540 23494 0.256084 0.642155
0.077804 0.867164 -0.044245 22973 23756 24271 0.231245 0.100960
0.135229 0.869895 -0.042528 23495 24541 24543 0.055729 0.702161
-0.087013 0.877735 -0.040114 24553 25047 25051 0.072850 0.339088
-0.074776 0.891839 -0.045197 23766 23767 24281 0.075427 0.136084
0.165593 0.928353 -0.038979 24293 24569 25569 0.026119 0.113898
0.196526 0.928663 -0.037557 25292 25572 25570 0.115303 0.421936
-0.098203 0.959808 -0.045443 23243 24042 23529 0.027599 0.699935
0.019113 0.951712 -0.045223 23246 24040 24832 0.016544 0.757638
0.157958 0.950792 -0.044561 24038 25077 24041 0.185109 0.132969
0.173192 0.954034 -0.035835 25821 26075 26074 0.139113 0.694150
-0.080787 0.963355 -0.042256 24311 25081 24835 0.630572 0.207378
0.086345 0.978244 -0.040412 23545 24596 25088 0.033525 0.090143
-0.084361 0.981543 -0.040784 24324 24594 25316 0.172825 0.407311
-0.040249 0.981412 -0.039660 24323 25092 26089 0.031795 0.530082
0.113613 0.982768 -0.045523 23263 23806 24598 0.039053 0.940927
0.137913 0.980956 -0.040359 24326 24328 25318 0.261191 0.161976
0.015316 0.999184 -0.044052 22560 23289 24349 0.063136 0.411939
-0.031570 1.004972 -0.040441 24856 25331 24858 0.077611 0.081080
-0.012213 1.000018 -0.039289 24616 25854 25105 0.685374 0.149206
0.042861 1.009204 -0.044675 21368 23848 22338 0.098054 0.892670
0.060963 1.005610 -0.038203 25110 25332 26114 0.599257 0.218112
-0.194647 0.066185 -0.029232 25875 27784 26386 0.362687 0.276648
-0.050272 0.067445 -0.030325 25625 29994 27202 0.836840 0.004715
0.197049 0.068404 -0.028143 25346 26131 27203 0.351578 0.062802
0.202996 0.093590 -0.029170 26391 26393 27791 0.247446 0.542200
-0.185221 0.148782 -0.033952 23863 25358 26138 0.257966 0.032132
0.187415 0.148736 -0.027753 25633 25888 28716 0.349662 0.313751
-0.007515 0.159431 -0.033112 24115 28099 28100 0.696294 0.083355
0.165897 0.158912 -0.032837 25892 26660 25896 0.044116 0.476037
-0.171440 0.160482 -0.031071 26406 26658 27800 0.471240 0.459060
-0.146729 0.160007 -0.032658 23868 26948 25894 0.079703 0.696859
-0.072885 0.162324 -0.033944 24892 26955 26409 0.278282 0.706093
0.040721 0.160505 -0.034028 25364 26950 26401 0.532610 0.327661
-0.034509 0.179654 -0.029766 26149 26151 27810 0.424756 0.077928
-0.069595 0.180187 -0.033095 25371 26960 25904 0.173080 0.575172
0.066103 0.185810 -0.027720 26663 27811 27228 0.326401 0.365031
-0.151242 0.198364 -0.034580 25133 27818 27522 0.627656 0.109317
-0.076502 0.205551 -0.025971 26665 28416 27525 0.478800 0.290459
0.066468 0.207820 -0.029772 26416 27523 26672 0.028098 0.728877
-0.010750 0.219357 -0.032242 23898 24671 26422 0.103286 0.217854
0.048096 0.219887 -0.026741 26174 28750 27245 0.336921 0.595057
-0.147460 0.228545 -0.034387 25920 26176 25921 0.574851 0.146264
0.094179 0.233437 -0.026451 26177 26972 28437 0.179839 0.328596
-0.134910 0.250683 -0.031284 25391 25922 26973 0.263736 0.350750
-0.126154 0.271662 -0.031739 25667 26179 26981 0.291139 0.085658
0.114245 0.276338 -0.026506 27546 27547 28133 0.086821 0.531894
-0.146474 0.288193 -0.026163 27555 28141 27867 0.433508 0.274200
0.135541 0.294022 -0.026676 26993 28144 27268 0.111723 0.819299
-0.158007 0.303597 -0.028609 26712 27564 26714 0.261647 0.542326
0.130429 0.311718 -0.025993 27875 28155 28160 0.209133 0.368279
-0.153217 0.343966 -0.028148 26202 27577 26722 0.201497 0.654510
-0.118920 0.346092 -0.032775 25420 26450 27280 0.509773 0.324151
0.153820 0.370887 -0.032528 25422 26726 27010 0.677896 0.057680
0.157895 0.388244 -0.035003 25182 26210 26726 0.550761 0.167802
0.161445 0.404638 -0.028027 26210 27288 27287 0.024330 0.928019
-0.145816 0.436361 -0.032676 25722 26739 25727 0.522882 0.340920
-0.136807 0.517799 -0.032309 25984 27036 25985 0.825769 0.170746
0.194718 0.518480 -0.027024 27613 27915 29548 0.751664 0.113872
-0.105291 0.525202 -0.028274 27312 28518 27315 0.592102 0.026710
0.199592 0.537550 -0.026177 27920 28214 28212 0.070653 0.463078
-0.095776 0.561868 -0.029167 24992 27045 26767 0.036469 0.409971
-0.083584 0.588845 -0.030773 25994 27319 28229 0.650186 0.117086
-0.070619 0.609896 -0.029526 25756 27626 25757 0.017482 0.961738
-0.063835 0.638777 -0.032467 25997 26771 27940 0.760612 0.106822
0.202127 0.634974 -0.029740 27321 27324 27323 0.615454 0.002543
0.191876 0.649003 -0.028418 27639 27941 27642 0.195136 0.596304
0.174813 0.678874 -0.030666 27052 27053 27652 0.594536 0.394768
0.196590 0.692582 -0.026769 27658 27952 28252 0.050189 0.705470
-0.088433 0.704765 -0.035380 25505 25762 26009 0.114121 0.174586
0.183694 0.708834 -0.027314 27664 28256 27956 0.714626 0.249243
0.195118 0.754103 -0.030931 27071 27352 27670 0.814995 0.031538
-0.094943 0.766769 -0.028178 27072 27966 27355 0.001359 0.424322
-0.099384 0.788479 -0.030937 26529 26789 27359 0.437939 0.188854
0.179482 0.805963 -0.034793 24781 25245 26026 0.095358 0.150245
-0.004863 0.829888 -0.034952 25256 26031 26798 0.210453 0.662672
0.184384 0.826833 -0.032523 26279 26280 26537 0.084438 0.070656
0.099191 0.856337 -0.034814 26039 26548 27098 0.900780 0.029913
0.123116 0.856357 -0.032155 25536 27097 25787 0.129251 0.498228
0.183278 0.859686 -0.035418 25789 25790 26296 0.544474 0.155402
-0.083128 0.860018 -0.028821 27385 27701 27702 0.570915 0.387504
-0.068081 0.871951 -0.032895 26552 26556 27115 0.313732 0.218499
0.164021 0.872794 -0.029397 27394 27397 28008 0.485548 0.474645
0.063846 0.886853 -0.031004 26837 26843 27404 0.506013 0.248638
0.146786 0.880433 -0.031866 26564 26830 27399 0.219721 0.106527
0.045509 0.893638 -0.033675 26051 26310 27122 0.395317 0.461986
0.165205 0.900658 -0.034596 26316 26317 26574 0.516266 0.463301
0.063807 0.914455 -0.033307 24824 26328 26580 0.104614 0.081664
0.194513 0.910615 -0.034361 25812 25813 26324 0.182085 0.045543
0.023732 0.946775 -0.029136 27141 27736 27737 0.672077 0.117944
0.064601 0.948961 -0.032446 24829 26595 26333 0.022936 0.650564
0.190324 0.946931 -0.029146 27140 27735 27422 0.486306 0.414532
0.078552 0.967565 -0.028848 26603 27743 28042 0.454745 0.117128
-0.064497 0.979621 -0.031410 26612 27161 26890 0.187665 0.577833
0.002948 0.971477 -0.025921 27432 28344 28043 0.158910 0.480330
0.159107 0.971223 -0.033042 26086 26883 26610 0.001441 0.964988
0.017275 0.981048 -0.029287 27169 27748 27749 0.568630 0.164943
0.070598 0.984437 -0.026924 27174 28054 28053 0.285253 0.037371
0.124291 0.984762 -0.029673 27166 27447 27456 0.180522 0.646233
-0.044147 0.997191 -0.026571 27768 28366 28065 0.561840 0.348500
0.113871 0.998922 -0.031300 26636 27186 26917 0.446491 0.459878
0.036982 1.008600 -0.027013 27478 28072 28373 0.546464 0.121756
0.145508 0.038493 -0.017554 29041 29393 30281 0.560883 0.151500
0.176524 0.033690 -0.021783 28075 29674 28375 0.047205 0.442701
-0.166654 0.048753 -0.017432 28081 28698 30577 0.573167 0.362709
0.182268 0.050826 -0.020030 28384 30578 28699 0.585720 0.310128
-0.141424 0.064504 -0.016340 29045 31160 29397 0.506814 0.310882
-0.120286 0.068136 -0.022020 27788 29399 30888 0.762867 0.067409
-0.094176 0.067882 -0.024325 24635 28389 28088 0.138962 0.547608
-0.063571 0.067519 -0.017688 24374 27202 28089 0.046442 0.560227
-0.031273 0.067340 -0.025132 24636 27789 29995 0.378497 0.321746
-0.000633 0.066791 -0.023915 24100 29687 26130 0.181759 0.569371
0.027251 0.066810 -0.023231 26389 26934 29048 0.184067 0.498821
0.055601 0.066811 -0.024998 25877 31162 26653 0.331066 0.317947
0.073068 0.066889 -0.020938 25877 29049 28087 0.368578 0.052169
0.093314 0.067165 -0.019561 28703 30889 29049 0.412179 0.025029
0.118887 0.066821 -0.022563 26935 28388 28704 0.408530 0.037437
-0.204209 0.098925 -0.019106 28091 30291 29401 0.351458 0.014642
-0.180689 0.128564 -0.019061 27210 29696 29054 0.063568 0.313112
0.180827 0.128020 -0.021759 27209 29055 30002 0.459152 0.341334
-0.183751 0.159865 -0.018749 29061 29705 30301 0.532962 0.368673
-0.116939 0.158641 -0.023502 26140 27215 28720 0.122804 0.146240
-0.088772 0.159856 -0.022760 26945 29058 28723 0.041120 0.426483
-0.025611 0.159877 -0.024277 26946 27507 29706 0.355134 0.342702
0.004267 0.159036 -0.016012 27797 30902 30903 0.313066 0.189149
0.028324 0.159804 -0.018575 28405 29060 30012 0.457981 0.315623
0.058172 0.158810 -0.016461 30013 31446 31173 0.846745 0.080636
0.148422 0.157453 -0.018257 28399 29704 29409 0.039706 0.740091
0.175950 0.159384 -0.017146 29066 31722 31181 0.822364 0.165389
-0.136593 0.161001 -0.017009 28726 29708 29412 0.017251 0.279070
0.132491 0.163057 -0.024368 27508 28105 29065 0.174688 0.627563
-0.087201 0.182759 -0.015745 30028 30913 31458 0.565450 0.114296
0.118681 0.187469 -0.024419 27517 28107 28106 0.058789 0.228889
-0.180219 0.210530 -0.023660 27822 28745 28422 0.606474 0.357617
-0.124462 0.211557 -0.019420 29085 29089 29435 0.522010 0.110690
-0.089285 0.215637 -0.019147 29729 29731 29732 0.316033 0.352620
-0.032391 0.210267 -0.022373 27826 29436 29428 0.682945 0.129868
0.001492 0.219248 -0.018929 28749 29739 29443 0.377702 0.614872
0.027383 0.219333 -0.020867 28120 30931 29097 0.539928 0.097867
0.093458 0.218117 -0.017379 30050 30341 30336 0.218258 0.714884
-0.166337 0.225281 -0.022165 27831 29106 27832 0.039795 0.770685
0.074178 0.224231 -0.023832 28126 28431 28755 0.093398 0.311984
-0.146890 0.243094 -0.018297 29115 29757 29120 0.358003 0.300023
0.064062 0.240010 -0.019847 29118 30351 29457 0.675989 0.117033
0.085827 0.249258 -0.016342 30353 30643 30638 0.319396 0.247632
0.093396 0.266118 -0.015649 30357 30646 30941 0.260548 0.518719
0.158919 0.279916 -0.025126 27551 28137 28448 0.200991 0.765270
0.184307 0.279176 -0.023280 28136 28770 28444 0.252944 0.198129
0.116960 0.300557 -0.016311 29138 30078 30077 0.165389 0.172451
0.149693 0.305073 -0.020030 29474 29779 29782 0.123506 0.182543
0.181602 0.304710 -0.024632 27270 28156 29791 0.741532 0.040087
-0.162778 0.322578 -0.024526 26716 27570 27571 0.085850 0.226406
0.124156 0.332099 -0.016380 30095 30677 30377 0.134055 0.472553
0.145661 0.336887 -0.021688 28795 29494 29492 0.531240 0.449100
-0.128521 0.343835 -0.018356 29505 31254 30685 0.962295 0.000884
0.131769 0.348879 -0.019633 29506 29815 29809 0.069130 0.150315
-0.114355 0.360566 -0.024233 27281 27579 28477 0.179960 0.747436
0.147976 0.362916 -0.017278 29819 30117 30984 0.406191 0.264650
-0.142035 0.377041 -0.025071 27282 28171 29516 0.378715 0.205799
-0.125621 0.372168 -0.017655 29514 30699 29832 0.479759 0.275814
-0.154199 0.398292 -0.016397 29521 30706 30399 0.163314 0.094005
0.154565 0.390199 -0.017751 29520 30136 30131 0.047088 0.604770
-0.151894 0.421946 -0.024676 27290 27895 28811 0.261454 0.008518
-0.113409 0.434684 -0.022902 26736 28490 27897 0.152220 0.486351
0.167648 0.431129 -0.024075 27590 28182 28486 0.242144 0.119546
-0.140501 0.456653 -0.024286 27601 28183 28184 0.042434 0.142192
-0.118649 0.459238 -0.020246 28497 31012 30145 0.488291 0.054145
0.175267 0.458312 -0.019045 29184 29527 29848 0.445760 0.412630
-0.138176 0.480828 -0.025507 28194 28504 28196 0.051644 0.097889
-0.118094 0.480802 -0.021077 28831 29195 29539 0.136250 0.620406
0.184671 0.482349 -0.025436 28197 28199 28503 0.712749 0.248659
-0.120575 0.513952 -0.025308 27307 27913 28206 0.517310 0.056633
0.184484 0.546213 -0.024944 28217 28521 28524 0.116194 0.391157
0.199030 0.555948 -0.025568 28223 28224 28531 0.560804 0.432662
-0.086568 0.577872 -0.016607 29876 30440 30443 0.132482 0.635615
0.163737 0.578446 -0.023897 28227 28541 29223 0.412698 0.420664
0.183017 0.577426 -0.022558 28851 29218 29224 0.132221 0.354475
0.204863 0.578825 -0.022887 28850 29225 29221 0.804778 0.032147
0.151837 0.607731 -0.020376 27320 29570 28859 0.127750 0.539123
0.183554 0.600791 -0.016229 30189 30452 30749 0.366185 0.564264
0.205109 0.601182 -0.023851 28548 28858 28855 0.486426 0.481343
0.190273 0.616065 -0.024734 28240 28554 29233 0.101878 0.424250
0.152220 0.635596 -0.021804 28870 28872 29579 0.783769 0.199687
0.180815 0.637345 -0.021094 28869 29237 29238 0.206965 0.092415
-0.070776 0.664178 -0.020731 28566 29588 28877 0.013735 0.061480
0.177376 0.661055 -0.025604 28567 29248 28876 0.278196 0.078983
0.204683 0.667732 -0.025483 27944 28249 28568 0.158542 0.646449
-0.087013 0.724962 -0.018765 28581 29895 30206 0.039991 0.906595
0.183557 0.728653 -0.025196 27960 28582 28259 0.058191 0.320723
-0.088722 0.754488 -0.016707 30483 30774 30485 0.603667 0.131316
-0.086278 0.786419 -0.016606 30489 31078 30780 0.321926 0.214001
0.181918 0.789855 -0.025347 27969 27970 28271 0.061685 0.117327
-0.083362 0.804279 -0.015635 30792 30793 31093 0.696842 0.263308
-0.093711 0.819312 -0.024424 28279 28911 28602 0.433294 0.174924
-0.061935 0.816060 -0.016749 30224 30503 30812 0.487067 0.266930
-0.028230 0.815796 -0.023059 28282 29910 28601 0.128316 0.099587
0.179981 0.811601 -0.015888 30806 31090 30807 0.373193 0.361551
-0.045424 0.824118 -0.022131 28284 29285 29282 0.014872 0.408266
-0.013737 0.826349 -0.020498 29283 31103 29287 0.002514 0.033009
0.193029 0.829345 -0.017659 29288 30511 29914 0.330591 0.617036
-0.071029 0.830452 -0.021214 29290 29617 29293 0.182505 0.653580
-0.088182 0.840581 -0.025188 27986 28607 28608 0.446138 0.198382
-0.064642 0.848738 -0.023379 28936 29305 29301 0.766891 0.200150
-0.001828 0.844462 -0.022798 27693 28609 29299 0.090229 0.414403
0.124039 0.840619 -0.016830 29923 30515 30826 0.835889 0.130081
0.178030 0.845491 -0.016981 30518 30526 30520 0.785853 0.055515
0.194673 0.848473 -0.022827 28616 29307 28935 0.059600 0.029554
0.012213 0.858831 -0.024582 26808 29309 27705 0.093627 0.363125
0.162736 0.859732 -0.016831 29932 30530 30239 0.382587 0.611734
0.029001 0.873010 -0.020519 28005 29943 28309 0.112503 0.707717
0.085568 0.872861 -0.021695 28311 28959 28958 0.315914 0.356126
0.180067 0.877527 -0.023726 27714 29319 29322 0.543759 0.330340
0.044911 0.887202 -0.016950 30251 30542 30544 0.040683 0.607651
0.190074 0.889616 -0.015789 30853 30856 31134 0.250117 0.699925
0.043468 0.905992 -0.020870 28630 29647 28632 0.358216 0.429707
0.064634 0.900411 -0.017401 29953 29956 30545 0.050575 0.515584
0.182015 0.907702 -0.021261 28318 28969 29955 0.518398 0.209887
0.192030 0.922179 -0.018362 29964 30560 30558 0.267198 0.143994
0.042730 0.937867 -0.024731 28324 28976 28642 0.507978 0.034086
0.059072 0.930166 -0.019853 29962 30269 30267 0.577267 0.368357
0.179027 0.933897 -0.020364 29340 29965 29970 0.542436 0.419249
0.026764 0.962502 -0.022414 29357 29363 29362 0.491295 0.242094
0.059576 0.966504 -0.019194 29662 30276 30273 0.448183 0.342609
-0.025584 0.997503 -0.025354 28362 28363 28684 0.289072 0.265205
-0.002048 0.991633 -0.023003 28667 28673 29381 0.067341 0.621192
0.026369 0.994716 -0.023516 28682 29378 29020 0.302173 0.010527
0.059010 0.997818 -0.022309 28685 29668 29979 0.488206 0.229848
0.089288 0.990265 -0.024273 28357 29019 28670 0.116140 0.552704
0.162172 0.029275 -0.010458 31152 32460 31425 0.300537 0.231621
-0.141410 0.046953 -0.015303 29680 29988 30880 0.616812 0.101972
-0.187754 0.056375 -0.008847 30883 31945 31158 0.302100 0.304676
0.144649 0.059992 -0.011188 29683 30287 31706 0.189438 0.380532
-0.106886 0.068361 -0.006535 29689 31164 32206 0.562176 0.033197
-0.078742 0.067639 -0.007555 28089 33341 33030 0.343853 0.009088
-0.043392 0.067384 -0.007918 29994 29995 33892 0.626472 0.176835
-0.018979 0.067011 -0.007893 29047 32468 33032 0.333843 0.491749
0.015345 0.066796 -0.010434 29048 31948 29687 0.232168 0.613890
0.035097 0.066918 -0.006698 30885 31162 32203 0.750707 0.031284
0.126300 0.066864 -0.006240 30886 33029 31433 0.176242 0.493300
-0.203111 0.080288 -0.007760 29996 32477 29997 0.014743 0.323913
0.204002 0.082877 -0.008731 30890 31710 33346 0.434868 0.350852
0.203796 0.101341 -0.010416 29999 31437 30892 0.022348 0.955044
-0.193573 0.119511 -0.011203 30292 31954 32211 0.627940 0.198924
0.194764 0.116921 -0.006013 30895 31439 33034 0.447623 0.122822
0.186970 0.143599 -0.010707 30004 30898 32480 0.656180 0.154455
-0.013854 0.159326 -0.008027 30011 31961 32487 0.063575 0.870280
0.074759 0.159718 -0.006633 30900 32215 31444 0.139465 0.005058
-0.154346 0.160710 -0.014741 29708 30592 31726 0.543471 0.454878
-0.039688 0.178675 -0.010707 30026 31976 30910 0.362276 0.452849
0.075789 0.177168 -0.008041 31456 31731 32758 0.439518 0.477365
0.138997 0.178236 -0.012020 30911 31189 32224 0.294753 0.544526
-0.160840 0.203586 -0.012067 30607 31464 31467 0.278248 0.530225
-0.141017 0.205207 -0.007982 31465 31739 32236 0.076378 0.375523
-0.107936 0.209104 -0.013564 29430 32504 30614 0.289327 0.455461
0.082325 0.200699 -0.015399 30606 31195 30915 0.580764 0.349410
0.108101 0.200088 -0.015176 30036 30323 31461 0.308932 0.670259
-0.179877 0.221590 -0.010085 30928 31478 32519 0.883321 0.113090
-0.020995 0.221436 -0.007821 28752 32246 31479 0.030543 0.780506
0.014536 0.224304 -0.007502 31750 32251 32521 0.174001 0.541747
-0.165182 0.236902 -0.008664 31989 31991 31990 0.402529 0.092388
-0.104411 0.231026 -0.007655 31754 31988 33078 0.548882 0.157082
0.048461 0.234778 -0.006607 31756 33079 32530 0.325017 0.063535
-0.135068 0.267551 -0.012212 29760 30942 30067 0.021245 0.861552
-0.161916 0.295283 -0.009500 31235 31507 31773 0.129080 0.098722
0.165580 0.295223 -0.012624 30368 31504 31509 0.357167 0.470710
-0.164916 0.329440 -0.007956 32555 32816 32817 0.650602 0.073858
-0.145755 0.339144 -0.009750 31521 32020 32019 0.090480 0.254201
